# .PCD v0.7 - Point Cloud Data file format
VERSION 0.7
FIELDS x y z
SIZE 4 4 4
TYPE F F F
COUNT 1 1 1
WIDTH 1449
HEIGHT 1
VIEWPOINT 0 0 0 1 0 0 0
POINTS 1449
DATA ascii
0.10227725 0.02197946 0.01500000
0.12000000 0.03200228 0.01245445
0.09036301 0.05516110 0.00000000
0.06239300 0.00000000 0.01281252
0.01386447 0.00000000 0.01274437
0.09199918 0.02891031 0.01500000
0.08590523 0.00983874 0.00000000
0.05484660 0.02387005 0.01500000
0.10693635 0.01129834 0.00000000
0.12000000 0.00336860 0.00312568
0.04622035 0.04563230 0.00000000
0.11752044 0.00957722 0.01500000
0.10946624 0.00000000 0.00451769
0.05108054 0.02645102 0.00000000
0.12000000 0.05825852 0.00769159
0.07691195 0.02635438 0.00000000
0.06435952 0.00714883 0.00000000
0.10655822 0.01356405 0.00000000
0.05398342 0.06500000 0.00780811
0.02272465 0.00000000 0.00184994
0.09240480 0.01623215 0.00000000
0.07466993 0.02849576 0.01500000
0.04272640 0.02494349 0.01500000
0.08462568 0.05280189 0.01500000
0.01187337 0.05136412 0.01500000
0.09939213 0.06500000 0.00871437
0.06100811 0.01773474 0.01500000
0.08159712 0.01405931 0.00000000
0.00000000 0.02247761 0.01422129
0.06400968 0.03923862 0.01500000
0.03398048 0.06500000 0.01363166
0.07098568 0.05764799 0.00000000
0.02186813 0.02347379 0.01500000
0.04917790 0.01895979 0.00000000
0.03114759 0.01930633 0.01500000
0.08242782 0.05084285 0.00000000
0.08832251 0.06500000 0.01108205
0.04651459 0.06471349 0.01500000
0.12000000 0.04511948 0.00923643
0.05630328 0.06500000 0.00360500
0.11983378 0.03626471 0.00000000
0.06662148 0.01042298 0.01500000
0.11000494 0.06033496 0.01500000
0.00259595 0.00136323 0.00000000
0.06420860 0.00973198 0.01500000
0.10264943 0.00000000 0.01098697
0.04086605 0.03799212 0.00000000
0.06148523 0.03632475 0.00000000
0.02129822 0.00752528 0.00000000
0.12000000 0.00148041 0.00332344
0.01568166 0.00936108 0.01500000
0.07560148 0.00000000 0.00340273
0.08997799 0.06500000 0.01081444
0.07607800 0.03809625 0.00000000
0.00619767 0.03277421 0.01500000
0.06371125 0.04813659 0.00000000
0.06679234 0.06500000 0.01125269
0.01020957 0.01738644 0.00000000
0.06397057 0.00725434 0.00000000
0.09952203 0.03808073 0.00000000
0.11177116 0.04753841 0.01500000
0.10799621 0.04347875 0.00000000
0.08604444 0.00292851 0.00000000
0.01899214 0.00000000 0.00803241
0.05969555 0.00000000 0.00019648
0.11340659 0.04726108 0.00000000
0.04479193 0.06500000 0.00777600
0.05035885 0.00762351 0.00000000
0.00000000 0.04711895 0.01275854
0.08612266 0.01364291 0.01500000
0.07604111 0.00420696 0.01500000
0.03695208 0.00000000 0.00862219
0.06654954 0.00828274 0.01500000
0.05907615 0.06022498 0.01500000
0.08674124 0.00000000 0.01257486
0.00446700 0.00630159 0.01500000
0.07562479 0.02501114 0.01500000
0.12000000 0.01489435 0.01216430
0.04490124 0.04074084 0.01500000
0.05765623 0.00082740 0.01500000
0.02880607 0.03990694 0.01500000
0.08154057 0.02865170 0.00000000
0.10459659 0.00000000 0.00587174
0.07639328 0.01333524 0.01500000
0.06620126 0.06082276 0.00000000
0.08506093 0.04759613 0.00000000
0.07576056 0.06500000 0.00786769
0.08040383 0.05564130 0.00000000
0.03714563 0.03439685 0.00000000
0.02276585 0.00000000 0.00971178
0.12000000 0.05333171 0.00634439
0.03702806 0.00641219 0.00000000
0.05314642 0.01118860 0.00000000
0.08313019 0.01825370 0.01500000
0.07348185 0.01908705 0.00000000
0.00736685 0.06500000 0.00045516
0.00000000 0.06142935 0.00002946
0.04849091 0.03039364 0.01500000
0.04412485 0.06500000 0.01377292
0.00523453 0.02694622 0.00000000
0.00917406 0.02816380 0.01500000
0.01173565 0.04170205 0.00000000
0.05988395 0.01984094 0.00000000
0.08342699 0.00932047 0.00000000
0.00747743 0.00070070 0.00000000
0.04487708 0.00000000 0.00364759
0.10325120 0.05983583 0.00000000
0.00574914 0.04716883 0.01500000
0.11520470 0.03203654 0.00000000
0.11925115 0.00000000 0.00113912
0.11264486 0.05554094 0.00000000
0.10448626 0.06293642 0.00000000
0.12000000 0.04044502 0.01091492
0.01525579 0.02989366 0.01500000
0.02149106 0.04394934 0.00000000
0.03085994 0.03568116 0.01500000
0.06204793 0.01928286 0.00000000
0.05531090 0.06324385 0.00000000
0.02018530 0.04455520 0.00000000
0.06595585 0.00552602 0.00000000
0.04492325 0.04004548 0.01500000
0.12000000 0.05830160 0.00735921
0.04273940 0.00000000 0.00727500
0.10550587 0.06500000 0.01371406
0.10469007 0.02748412 0.01500000
0.03658816 0.03417919 0.00000000
0.00504727 0.01729215 0.01500000
0.12000000 0.04897695 0.00221693
0.06755708 0.05550269 0.00000000
0.12000000 0.04386343 0.00537617
0.02953031 0.00484247 0.01500000
0.02338044 0.06500000 0.00016176
0.08182565 0.03270056 0.01500000
0.10540145 0.05077745 0.00000000
0.11317864 0.06500000 0.00627958
0.05912637 0.05396110 0.00000000
0.03872188 0.06068698 0.00000000
0.10733456 0.05974039 0.00000000
0.06439058 0.06223553 0.01500000
0.01011989 0.01095349 0.00000000
0.00000000 0.03739788 0.01258679
0.00245068 0.03545286 0.00000000
0.02699772 0.01232038 0.01500000
0.00972745 0.05256475 0.00000000
0.04532801 0.00807256 0.00000000
0.05430072 0.06165834 0.01500000
0.12000000 0.00039762 0.01000214
0.01537285 0.04176908 0.00000000
0.09394858 0.05798841 0.00000000
0.00052506 0.00372061 0.01500000
0.00751727 0.02664529 0.00000000
0.06316362 0.01720590 0.00000000
0.01719628 0.05031029 0.01500000
0.00000000 0.00268514 0.00011052
0.00945659 0.02660646 0.00000000
0.07992230 0.06278332 0.00000000
0.04248463 0.04277635 0.01500000
0.09859348 0.00000000 0.00862995
0.06273445 0.01828350 0.00000000
0.02760392 0.04010676 0.01500000
0.09728107 0.02135389 0.01500000
0.11181358 0.02797756 0.01500000
0.11573021 0.06500000 0.01304683
0.01303445 0.00177114 0.01500000
0.10337804 0.06500000 0.00065389
0.00000000 0.06303440 0.00439169
0.01353313 0.00355568 0.01500000
0.11703933 0.04704500 0.01500000
0.00136707 0.00000000 0.00506263
0.12000000 0.01371742 0.00303723
0.07834443 0.00543706 0.01500000
0.12000000 0.06405418 0.00295857
0.08105241 0.00110166 0.01500000
0.04941900 0.05223837 0.01500000
0.09166841 0.00721399 0.01500000
0.12000000 0.01737261 0.00555081
0.05145086 0.01859131 0.01500000
0.05539453 0.05374131 0.01500000
0.09181682 0.02216873 0.00000000
0.07540666 0.00000000 0.00892493
0.06470698 0.06478461 0.01500000
0.00759310 0.05889070 0.01500000
0.06017183 0.05128586 0.01500000
0.08245086 0.04981245 0.01500000
0.06960137 0.01871025 0.00000000
0.10402553 0.06500000 0.01351287
0.07822421 0.00901124 0.00000000
0.08008981 0.04672875 0.01500000
0.09870435 0.03403152 0.01500000
0.08055835 0.06496251 0.01500000
0.10081584 0.05084030 0.00000000
0.06588136 0.05396418 0.00000000
0.08650054 0.05626919 0.01500000
0.11240052 0.01136846 0.01500000
0.01929136 0.06500000 0.00732519
0.02507377 0.03949281 0.00000000
0.02935634 0.03561996 0.01500000
0.00496134 0.00194438 0.00000000
0.11512488 0.06074673 0.00000000
0.01445312 0.03438740 0.00000000
0.01780609 0.01640694 0.01500000
0.10350197 0.00000000 0.00693929
0.05862703 0.05724559 0.01500000
0.01473043 0.04424841 0.00000000
0.11525582 0.00217751 0.00000000
0.09444182 0.00000000 0.00978584
0.03651474 0.03565059 0.00000000
0.04684996 0.00000000 0.00249611
0.03878132 0.01383052 0.00000000
0.02245594 0.02077897 0.00000000
0.02622790 0.06193904 0.00000000
0.00885595 0.01512782 0.00000000
0.08688625 0.03858876 0.00000000
0.10221832 0.06398445 0.01500000
0.00250236 0.03949832 0.01500000
0.04174507 0.00000000 0.00462039
0.08199888 0.04684666 0.00000000
0.00578947 0.03785949 0.01500000
0.07156987 0.05563883 0.00000000
0.00000000 0.02416750 0.00907405
0.07011326 0.06500000 0.00171056
0.06040987 0.03148924 0.01500000
0.01713119 0.01370684 0.00000000
0.06515653 0.03037344 0.00000000
0.05897950 0.06500000 0.00348683
0.09679708 0.02142506 0.01500000
0.12000000 0.01040959 0.01208660
0.04437899 0.05598499 0.00000000
0.01168257 0.06500000 0.01076128
0.00490421 0.00000000 0.00617250
0.06623439 0.02052513 0.00000000
0.01316440 0.02742546 0.00000000
0.06097583 0.00000000 0.00065436
0.01926020 0.01312112 0.01500000
0.03643418 0.00571065 0.01500000
0.08533764 0.04789644 0.00000000
0.05580024 0.02572945 0.00000000
0.03489469 0.04820067 0.00000000
0.08310169 0.03266671 0.01500000
0.00619229 0.04006641 0.00000000
0.05926202 0.04897808 0.01500000
0.01956684 0.05867865 0.00000000
0.10144888 0.03046299 0.00000000
0.07596050 0.03076381 0.00000000
0.06177597 0.00000000 0.01379253
0.03309493 0.03889308 0.01500000
0.01833506 0.00386932 0.01500000
0.00859465 0.05179606 0.01500000
0.06588625 0.05739794 0.00000000
0.01171704 0.01043496 0.00000000
0.06745775 0.02032917 0.01500000
0.04389184 0.04114403 0.00000000
0.12000000 0.00453672 0.00578887
0.11816690 0.04751443 0.00000000
0.07060724 0.00000000 0.01468301
0.03608432 0.05128751 0.01500000
0.07274736 0.00543051 0.01500000
0.02643114 0.05222136 0.00000000
0.05525199 0.02882325 0.00000000
0.02506000 0.04937731 0.01500000
0.00380979 0.05232543 0.00000000
0.10200909 0.01292474 0.01500000
0.03750562 0.06500000 0.00833023
0.06713769 0.03859752 0.01500000
0.11804201 0.02686431 0.00000000
0.02926201 0.02424442 0.00000000
0.07639014 0.01819312 0.00000000
0.02869641 0.02875120 0.01500000
0.12000000 0.02782933 0.00338269
0.00000000 0.04364781 0.01123421
0.00443059 0.03400795 0.00000000
0.00000000 0.00805695 0.01209677
0.05530784 0.01829244 0.01500000
0.00000000 0.03558836 0.00861752
0.05649053 0.01368347 0.00000000
0.10579612 0.02949263 0.00000000
0.10256836 0.04407704 0.00000000
0.11529626 0.00396167 0.00000000
0.10286267 0.05516343 0.00000000
0.07950970 0.04752491 0.00000000
0.11799736 0.02238483 0.00000000
0.03118670 0.05176414 0.01500000
0.03955703 0.00148037 0.00000000
0.02383379 0.00923552 0.00000000
0.05351847 0.02401605 0.01500000
0.04523477 0.05788272 0.00000000
0.04483132 0.05023555 0.00000000
0.07149689 0.02272299 0.00000000
0.05576619 0.06500000 0.01480841
0.00995450 0.01666413 0.00000000
0.07334368 0.06432280 0.00000000
0.03178268 0.05683001 0.01500000
0.09806434 0.06500000 0.00975140
0.07444000 0.02056188 0.01500000
0.11623163 0.06500000 0.00429751
0.11658335 0.00072410 0.01500000
0.00338306 0.01401225 0.00000000
0.12000000 0.00644520 0.00351223
0.11480714 0.00451304 0.01500000
0.08026503 0.00835751 0.01500000
0.06310074 0.05673691 0.01500000
0.06262603 0.05174251 0.00000000
0.05309293 0.06500000 0.00070017
0.05326315 0.02274113 0.01500000
0.00373820 0.00522306 0.00000000
0.00000000 0.01215198 0.00419020
0.02696373 0.00395063 0.01500000
0.07496564 0.06500000 0.00212212
0.12000000 0.04917634 0.00718891
0.00479904 0.02887616 0.01500000
0.03851443 0.05640227 0.01500000
0.06041165 0.01015741 0.01500000
0.08141630 0.06500000 0.01078818
0.00000000 0.01248002 0.01460376
0.08702586 0.06500000 0.01213398
0.01524746 0.00776190 0.00000000
0.04016418 0.06208147 0.01500000
0.03831586 0.06048033 0.01500000
0.00232099 0.01336629 0.00000000
0.06193250 0.00101146 0.00000000
0.11439249 0.03676651 0.01500000
0.08166173 0.06429134 0.00000000
0.09372835 0.00148581 0.01500000
0.08989206 0.06500000 0.00504496
0.10969335 0.04895516 0.00000000
0.08711040 0.06500000 0.01142904
0.08453258 0.05839706 0.01500000
0.02066563 0.02054223 0.01500000
0.09724836 0.04030618 0.00000000
0.11372574 0.06500000 0.00066101
0.05428427 0.03440524 0.01500000
0.05920393 0.03113671 0.01500000
0.04613364 0.05373977 0.01500000
0.03292663 0.06500000 0.00153676
0.05466731 0.01070349 0.01500000
0.02061212 0.02051327 0.00000000
0.07589129 0.05377048 0.01500000
0.01187112 0.04951924 0.00000000
0.06708801 0.02608164 0.00000000
0.10428239 0.00000000 0.00019971
0.00000000 0.01548779 0.00928237
0.12000000 0.00898180 0.01132983
0.06139659 0.00000000 0.00084349
0.01164163 0.05621393 0.01500000
0.01545318 0.04169819 0.01500000
0.02944050 0.03198281 0.01500000
0.10709081 0.02930425 0.00000000
0.04127861 0.03997152 0.01500000
0.07302050 0.06500000 0.00773102
0.03035827 0.02700298 0.00000000
0.01565021 0.04047042 0.01500000
0.06062748 0.00000000 0.00727836
0.01847773 0.01651720 0.00000000
0.05837684 0.06500000 0.00384208
0.10584337 0.03193337 0.01500000
0.01486982 0.02086617 0.00000000
0.11998702 0.02871940 0.01500000
0.07495814 0.01230385 0.01500000
0.00000000 0.04157457 0.00179267
0.00364767 0.05839713 0.01500000
0.09126108 0.00413305 0.01500000
0.09674504 0.02210075 0.00000000
0.03075137 0.00801640 0.00000000
0.04923902 0.00000000 0.01216831
0.07763233 0.06434675 0.01500000
0.10826503 0.03043843 0.00000000
0.04631035 0.05999896 0.00000000
0.04755439 0.02056055 0.01500000
0.01441160 0.00297773 0.00000000
0.03113120 0.02390978 0.01500000
0.02033079 0.02430667 0.00000000
0.03809355 0.05462844 0.01500000
0.10259426 0.00308678 0.01500000
0.00000000 0.00823100 0.00512886
0.00055768 0.04440235 0.01500000
0.02039966 0.00330473 0.01500000
0.00551558 0.06500000 0.00756507
0.06470644 0.04266791 0.00000000
0.04593442 0.00000000 0.00407215
0.10775204 0.01914515 0.01500000
0.04451238 0.02998921 0.01500000
0.10696114 0.06500000 0.00916944
0.10733241 0.02447160 0.00000000
0.03109887 0.03467106 0.00000000
0.07375281 0.04184488 0.01500000
0.12000000 0.00049945 0.00276153
0.03823337 0.00009377 0.00000000
0.02548735 0.04362477 0.00000000
0.04414627 0.01064429 0.00000000
0.07331377 0.05473036 0.01500000
0.05205733 0.06500000 0.01400104
0.10513669 0.06500000 0.00795241
0.08180141 0.00509964 0.00000000
0.07345613 0.06500000 0.01108068
0.07903791 0.00533060 0.00000000
0.03594688 0.05477333 0.01500000
0.08686036 0.06500000 0.00566928
0.11686575 0.06500000 0.00353601
0.09138589 0.00008057 0.00000000
0.05512142 0.06500000 0.00214676
0.06101828 0.06500000 0.01269463
0.03807022 0.04625180 0.01500000
0.12000000 0.00720664 0.01207671
0.06221587 0.05135522 0.00000000
0.09065553 0.05318690 0.00000000
0.08258223 0.06166670 0.01500000
0.07046461 0.05144695 0.01500000
0.00326481 0.03735253 0.01500000
0.03402320 0.00000000 0.00671834
0.12000000 0.00526902 0.00639754
0.10327782 0.05241435 0.00000000
0.09669942 0.01163023 0.00000000
0.07096064 0.06181804 0.01500000
0.11435510 0.04472695 0.01500000
0.04422038 0.00987205 0.01500000
0.11082646 0.06200228 0.01500000
0.03176781 0.00000000 0.00906138
0.01220255 0.06037719 0.00000000
0.00882829 0.04836261 0.01500000
0.09812670 0.04296054 0.00000000
0.10198364 0.03346549 0.00000000
0.05443477 0.03949741 0.00000000
0.10794923 0.06218240 0.01500000
0.09881264 0.01371126 0.01500000
0.09896577 0.00584089 0.01500000
0.01896232 0.00739916 0.00000000
0.04162455 0.04380002 0.00000000
0.00297058 0.00559495 0.00000000
0.02315726 0.05849932 0.00000000
0.08233982 0.01644297 0.00000000
0.00000000 0.04629046 0.01365143
0.11678051 0.04264053 0.00000000
0.03837448 0.03420339 0.00000000
0.05028125 0.02293242 0.01500000
0.01746283 0.05507832 0.01500000
0.09284867 0.06500000 0.00355501
0.06682345 0.00524985 0.01500000
0.00000000 0.04200989 0.01354812
0.10798659 0.02174798 0.00000000
0.03500152 0.02909058 0.00000000
0.03548208 0.00371111 0.01500000
0.05774991 0.03908588 0.01500000
0.00000000 0.03663548 0.00110897
0.07162249 0.02358951 0.01500000
0.03882009 0.01584575 0.00000000
0.01241749 0.05670802 0.01500000
0.05604795 0.06486363 0.00000000
0.10841886 0.03265924 0.01500000
0.08136606 0.04841998 0.00000000
0.00000000 0.06188462 0.00982061
0.05789300 0.06500000 0.00847038
0.08442364 0.05429511 0.00000000
0.05261119 0.03115614 0.01500000
0.07938082 0.00000000 0.01221409
0.03938939 0.00431839 0.01500000
0.08871284 0.00908601 0.00000000
0.04930833 0.02354622 0.01500000
0.11089540 0.04219784 0.01500000
0.09989578 0.02711856 0.01500000
0.07946529 0.00901351 0.00000000
0.11076229 0.01066728 0.00000000
0.02494356 0.01847560 0.01500000
0.12000000 0.04816566 0.01222610
0.00000000 0.03167616 0.00471377
0.06229029 0.05713722 0.01500000
0.12000000 0.04133339 0.00564295
0.07394914 0.00018813 0.00000000
0.10024548 0.03910419 0.00000000
0.02238485 0.04801351 0.01500000
0.06462981 0.00236936 0.00000000
0.04349855 0.06111401 0.01500000
0.03713972 0.05590299 0.01500000
0.00000000 0.03887768 0.00950626
0.10290045 0.04175001 0.00000000
0.03903137 0.00297909 0.01500000
0.11150781 0.03557181 0.01500000
0.09592607 0.06019972 0.01500000
0.08302644 0.03826110 0.00000000
0.11256465 0.06500000 0.01315078
0.01574909 0.00541866 0.01500000
0.05452064 0.04500543 0.01500000
0.12000000 0.02892699 0.01024039
0.03606652 0.02243499 0.00000000
0.01560346 0.00000000 0.00515586
0.08288110 0.05464879 0.00000000
0.03031714 0.03838305 0.00000000
0.06069813 0.05047231 0.01500000
0.07057381 0.00974788 0.01500000
0.07250761 0.00206905 0.00000000
0.10476761 0.00191894 0.01500000
0.02930156 0.00641920 0.01500000
0.07377426 0.05117665 0.01500000
0.04652965 0.06500000 0.00858881
0.00000000 0.05988298 0.00279239
0.02179237 0.00000000 0.00274083
0.06063319 0.04819039 0.00000000
0.11094425 0.00000000 0.01497810
0.11155106 0.02016089 0.00000000
0.03599672 0.04998980 0.01500000
0.10682144 0.00277676 0.01500000
0.11341470 0.03665662 0.01500000
0.08443521 0.00966598 0.01500000
0.02391459 0.06451353 0.00000000
0.06855607 0.04737209 0.00000000
0.06295939 0.06422383 0.01500000
0.11837978 0.01066514 0.00000000
0.03968773 0.02245856 0.00000000
0.11553479 0.05460743 0.00000000
0.06966268 0.04838368 0.01500000
0.02321532 0.05363862 0.01500000
0.09067105 0.01626255 0.00000000
0.04488343 0.00306660 0.01500000
0.09446708 0.00177943 0.01500000
0.04238768 0.02930739 0.00000000
0.04488103 0.03955343 0.00000000
0.02236104 0.02816834 0.01500000
0.11893848 0.02470828 0.00000000
0.08888522 0.02950679 0.00000000
0.04238075 0.00000000 0.00928234
0.05817458 0.03172281 0.00000000
0.10142532 0.03553344 0.00000000
0.10021879 0.03117013 0.01500000
0.10239360 0.02779066 0.00000000
0.09977906 0.02926339 0.01500000
0.03403734 0.00911154 0.01500000
0.08492926 0.01051131 0.01500000
0.02225375 0.02188229 0.00000000
0.08466388 0.06500000 0.01239671
0.01597635 0.05602239 0.00000000
0.10064364 0.01279204 0.00000000
0.08843777 0.06500000 0.00257411
0.01345218 0.04710050 0.00000000
0.02350276 0.06445681 0.01500000
0.04178191 0.01253513 0.01500000
0.00000000 0.04317802 0.01373698
0.06982957 0.02861051 0.00000000
0.05447840 0.05998515 0.00000000
0.07584478 0.05966694 0.01500000
0.04140416 0.04549335 0.00000000
0.01952909 0.02592023 0.01500000
0.07245031 0.04245216 0.00000000
0.07653992 0.00000000 0.01040330
0.10708637 0.03936847 0.00000000
0.07134519 0.06310248 0.00000000
0.10644388 0.00000000 0.00182342
0.02344631 0.05463935 0.01500000
0.10224671 0.01566122 0.01500000
0.07348910 0.06500000 0.00165935
0.06656334 0.06237072 0.00000000
0.06994819 0.03883395 0.00000000
0.11514607 0.03803376 0.00000000
0.00301604 0.03007441 0.00000000
0.04152786 0.06500000 0.00096487
0.08543407 0.04895900 0.00000000
0.02094878 0.05298215 0.01500000
0.04839739 0.03829649 0.01500000
0.10143829 0.00000000 0.00155895
0.05295893 0.03465231 0.00000000
0.04019372 0.01630760 0.01500000
0.08529518 0.06411567 0.01500000
0.00000000 0.00495023 0.00512018
0.06369151 0.03563401 0.00000000
0.08046853 0.02978955 0.00000000
0.11641007 0.06500000 0.00222464
0.00000000 0.02245591 0.01341503
0.11986898 0.04254786 0.01500000
0.01794566 0.04946939 0.00000000
0.02710495 0.01704429 0.00000000
0.11385547 0.05020210 0.00000000
0.07484657 0.04622148 0.00000000
0.02203343 0.01001585 0.00000000
0.09647814 0.00000000 0.01062666
0.00000000 0.03638724 0.01182777
0.02496455 0.05718375 0.00000000
0.07997507 0.06500000 0.00031183
0.00317329 0.03251840 0.00000000
0.12000000 0.02271022 0.00633500
0.06673091 0.02538957 0.01500000
0.00000000 0.00712888 0.00967193
0.01017575 0.00352597 0.00000000
0.01298489 0.06257973 0.01500000
0.05251754 0.01816086 0.01500000
0.11467595 0.02391612 0.00000000
0.01710648 0.06500000 0.00936587
0.04469093 0.00000000 0.00107555
0.01574650 0.06466283 0.01500000
0.11110677 0.01307383 0.00000000
0.02543977 0.00000000 0.01129475
0.12000000 0.00504411 0.00299395
0.02334892 0.04987520 0.00000000
0.10918912 0.05031392 0.01500000
0.09673267 0.02663120 0.00000000
0.06786450 0.01208959 0.00000000
0.06946060 0.02643730 0.00000000
0.06956432 0.03980973 0.00000000
0.06033905 0.00000000 0.01441718
0.01263559 0.00000000 0.01126918
0.07564575 0.03772718 0.01500000
0.02177415 0.00000000 0.01055248
0.03888612 0.06500000 0.00081159
0.06380456 0.00472429 0.00000000
0.02967775 0.00000000 0.01017469
0.09106583 0.05350150 0.00000000
0.01354042 0.06500000 0.00390799
0.00000000 0.02112929 0.00660048
0.09294528 0.00895507 0.00000000
0.00475018 0.04426854 0.01500000
0.07197515 0.05748068 0.01500000
0.04258186 0.04735551 0.00000000
0.00765421 0.02945474 0.01500000
0.08504466 0.06500000 0.00191677
0.11130434 0.06119834 0.01500000
0.03638645 0.00000000 0.00640962
0.03846173 0.00000000 0.00923023
0.02882218 0.00503645 0.01500000
0.05383292 0.03703549 0.00000000
0.03096146 0.04280743 0.00000000
0.04678816 0.05952106 0.00000000
0.05849241 0.00120411 0.01500000
0.00955723 0.01236952 0.01500000
0.05738696 0.02779873 0.00000000
0.09193326 0.00000000 0.00087257
0.11119801 0.00504364 0.01500000
0.00258683 0.05520472 0.01500000
0.09151382 0.02944274 0.00000000
0.05726535 0.03501583 0.01500000
0.06068666 0.03127213 0.00000000
0.01730779 0.01470397 0.01500000
0.06504129 0.00638436 0.00000000
0.11699002 0.04654390 0.01500000
0.11584065 0.03405026 0.01500000
0.01427743 0.05538446 0.01500000
0.08025950 0.02793800 0.01500000
0.07530760 0.03664185 0.00000000
0.01100806 0.01416417 0.01500000
0.03060145 0.04473667 0.01500000
0.11061450 0.04205291 0.01500000
0.01890259 0.05804981 0.01500000
0.03905225 0.03181141 0.00000000
0.10122643 0.03936003 0.01500000
0.00284771 0.04943403 0.01500000
0.08465952 0.00000000 0.00399617
0.06281081 0.01080696 0.01500000
0.08814570 0.04622762 0.00000000
0.02836550 0.02333596 0.01500000
0.03654199 0.02454524 0.01500000
0.10527960 0.05277656 0.01500000
0.07455737 0.06500000 0.00926717
0.11488283 0.05824235 0.00000000
0.10690000 0.06400141 0.01500000
0.00000000 0.02604141 0.00166235
0.00000000 0.04757058 0.00953122
0.04412353 0.03547385 0.00000000
0.06824341 0.02460833 0.01500000
0.10383705 0.01391183 0.01500000
0.06391907 0.04930524 0.01500000
0.02377372 0.06500000 0.01065500
0.12000000 0.06057028 0.00860755
0.06855205 0.06500000 0.00093799
0.03777451 0.00000000 0.01349327
0.06120319 0.05352738 0.00000000
0.03620200 0.00031663 0.01500000
0.05722976 0.00245686 0.00000000
0.00796486 0.01427234 0.00000000
0.06343800 0.00000000 0.01297043
0.02642627 0.00405025 0.01500000
0.03507719 0.00000000 0.00736030
0.10698077 0.02533226 0.01500000
0.09839831 0.05018217 0.00000000
0.09436932 0.03847025 0.01500000
0.10282960 0.03370187 0.00000000
0.08255063 0.05218368 0.00000000
0.05833227 0.02488191 0.00000000
0.08090299 0.00000000 0.00275436
0.09153598 0.05670989 0.00000000
0.01437180 0.01579236 0.01500000
0.00435762 0.06500000 0.00892067
0.07594808 0.00219233 0.01500000
0.03951444 0.03817524 0.01500000
0.08000875 0.03138493 0.00000000
0.05732896 0.01908384 0.00000000
0.05388863 0.03441375 0.01500000
0.06977736 0.03294740 0.01500000
0.10926536 0.01540546 0.00000000
0.04396790 0.03110107 0.01500000
0.07041938 0.02434465 0.00000000
0.07979320 0.03173306 0.00000000
0.02955293 0.03122129 0.01500000
0.01150052 0.05245350 0.00000000
0.07336952 0.06500000 0.00088726
0.10112674 0.06482555 0.00000000
0.12000000 0.02920055 0.00912306
0.09041341 0.06500000 0.01281028
0.10038490 0.00480658 0.01500000
0.10999599 0.06500000 0.00559526
0.03401878 0.00000000 0.01120702
0.10663737 0.02387109 0.01500000
0.03477270 0.02324415 0.00000000
0.08012712 0.01585465 0.01500000
0.09697811 0.00000000 0.00183309
0.11271734 0.02712845 0.01500000
0.00074987 0.03213559 0.00000000
0.10274485 0.02692070 0.01500000
0.00663563 0.01031024 0.00000000
0.02430178 0.00000000 0.01002000
0.00489988 0.00000000 0.00991887
0.08834799 0.00120112 0.01500000
0.00688768 0.04895587 0.01500000
0.05935765 0.02168794 0.01500000
0.12000000 0.01226572 0.01160653
0.09618560 0.06500000 0.01292489
0.08727837 0.04586162 0.00000000
0.07927422 0.02280251 0.00000000
0.11427778 0.00165086 0.00000000
0.09500566 0.02208468 0.01500000
0.11519578 0.01250202 0.01500000
0.08028679 0.01287066 0.01500000
0.04154195 0.02094588 0.01500000
0.10059058 0.00000000 0.01387538
0.12000000 0.04567713 0.01375388
0.01776631 0.05339241 0.01500000
0.05855051 0.00561711 0.00000000
0.05914626 0.00000000 0.00296746
0.03446705 0.06293257 0.01500000
0.07937678 0.00471880 0.00000000
0.01994269 0.00000000 0.01064148
0.06235611 0.05283360 0.00000000
0.06345775 0.06500000 0.00626449
0.11096191 0.01950509 0.00000000
0.02902275 0.06156419 0.01500000
0.04024114 0.03565138 0.00000000
0.06127035 0.00000000 0.01476438
0.12000000 0.03449604 0.00163303
0.01134902 0.06231775 0.01500000
0.08471343 0.06098341 0.01500000
0.00000000 0.04713442 0.01270504
0.10258182 0.02828266 0.01500000
0.02207813 0.06500000 0.00992125
0.00014263 0.05933598 0.01500000
0.01151764 0.06500000 0.01101777
0.02145097 0.06500000 0.01380988
0.02048250 0.06329581 0.01500000
0.00329816 0.02239631 0.00000000
0.03176639 0.00473018 0.01500000
0.11817060 0.03708758 0.01500000
0.03336629 0.00525752 0.01500000
0.10456753 0.05671366 0.00000000
0.07686221 0.04291234 0.01500000
0.11082555 0.03689578 0.00000000
0.09917749 0.02747227 0.01500000
0.05033085 0.00000000 0.01090723
0.09781923 0.01856898 0.00000000
0.02542215 0.00178817 0.01500000
0.06371822 0.01442056 0.01500000
0.06932827 0.05444611 0.00000000
0.09373093 0.03699804 0.00000000
0.01566099 0.00304941 0.01500000
0.02254667 0.04177900 0.01500000
0.11246257 0.02243500 0.01500000
0.00258278 0.05442510 0.01500000
0.11726495 0.02229274 0.01500000
0.05862279 0.06500000 0.00831890
0.07181292 0.05426200 0.00000000
0.05021078 0.06330336 0.00000000
0.07098289 0.01457245 0.01500000
0.00187476 0.06500000 0.00181720
0.11627371 0.02044346 0.01500000
0.10228073 0.04022168 0.00000000
0.01224816 0.05975264 0.01500000
0.05695311 0.02899426 0.01500000
0.00138977 0.04088230 0.01500000
0.04645956 0.05444949 0.00000000
0.01345098 0.06500000 0.00739321
0.09498702 0.06063910 0.01500000
0.08067863 0.06500000 0.00643487
0.08198842 0.00087338 0.00000000
0.00185614 0.06379100 0.01500000
0.12000000 0.02917542 0.00574321
0.00272875 0.04538986 0.01500000
0.10420277 0.06014324 0.01500000
0.10791081 0.02049941 0.01500000
0.00426555 0.03844275 0.01500000
0.07405693 0.06500000 0.00140506
0.09655324 0.00000000 0.00261867
0.02869311 0.00000000 0.00675139
0.11074541 0.05642666 0.01500000
0.10330074 0.02463798 0.01500000
0.10409745 0.00317269 0.01500000
0.06410250 0.01677351 0.01500000
0.05089114 0.01909969 0.01500000
0.05991252 0.00000000 0.00177555
0.08813752 0.04015750 0.00000000
0.03284936 0.00748261 0.00000000
0.11623366 0.04330319 0.00000000
0.03027982 0.03046954 0.01500000
0.06683249 0.06500000 0.00348057
0.01044967 0.02222508 0.01500000
0.05331605 0.06500000 0.00097523
0.05724339 0.04282711 0.00000000
0.00000000 0.03848985 0.01047774
0.00259303 0.04500089 0.01500000
0.00021657 0.01214357 0.00000000
0.06684950 0.05085819 0.01500000
0.03955871 0.05423649 0.00000000
0.03684147 0.05907530 0.01500000
0.08021738 0.01450057 0.01500000
0.00855210 0.00590556 0.00000000
0.04205371 0.05048409 0.01500000
0.01539743 0.03959022 0.00000000
0.00833414 0.04044508 0.01500000
0.05015041 0.00229790 0.00000000
0.09867798 0.06011815 0.00000000
0.03302594 0.04786040 0.01500000
0.12000000 0.00739148 0.01036289
0.01059462 0.06086259 0.00000000
0.01765354 0.01502488 0.01500000
0.05189803 0.05445587 0.01500000
0.02873895 0.04983129 0.00000000
0.04182920 0.06462362 0.00000000
0.09034359 0.05008626 0.00000000
0.10484238 0.06500000 0.00962218
0.08785228 0.05996105 0.01500000
0.11947646 0.01412210 0.00000000
0.00182356 0.06379913 0.01500000
0.02596659 0.02024018 0.01500000
0.07615545 0.03779065 0.01500000
0.00296278 0.06275896 0.01500000
0.09134418 0.06500000 0.00730248
0.10589434 0.00000000 0.01459047
0.02094106 0.00250318 0.00000000
0.09990836 0.00000000 0.00319005
0.00781064 0.00000000 0.00916509
0.09757488 0.01281350 0.01500000
0.12000000 0.04286295 0.00288219
0.09769656 0.06500000 0.00224284
0.07657969 0.01933418 0.01500000
0.09948967 0.00000000 0.00818019
0.02873343 0.01545766 0.01500000
0.09159179 0.02693451 0.00000000
0.03228595 0.06489440 0.00000000
0.06918607 0.04397025 0.01500000
0.09682183 0.04477394 0.00000000
0.01880850 0.05693828 0.00000000
0.09248739 0.01725692 0.01500000
0.02138714 0.03430327 0.01500000
0.09300423 0.06500000 0.01485197
0.08489053 0.00000000 0.01490499
0.00000000 0.04409328 0.00634313
0.10743024 0.04158147 0.01500000
0.00000000 0.05499750 0.00650320
0.05517067 0.00000000 0.00424778
0.00000000 0.02211271 0.00580468
0.04870513 0.00966483 0.00000000
0.10937973 0.00000000 0.01086873
0.11662085 0.06331728 0.00000000
0.00192659 0.05349503 0.00000000
0.01577266 0.05059816 0.01500000
0.01927479 0.03896191 0.00000000
0.01982518 0.00000000 0.00539155
0.03043769 0.03279539 0.00000000
0.00000000 0.02501919 0.01341908
0.09123930 0.03556109 0.01500000
0.08074856 0.00702140 0.00000000
0.00000000 0.01550607 0.00973545
0.01467319 0.03874363 0.01500000
0.09955078 0.02267760 0.01500000
0.02274187 0.06500000 0.01041337
0.00000000 0.03968856 0.00601232
0.09440137 0.01078375 0.01500000
0.10629717 0.01338133 0.00000000
0.09877279 0.01484863 0.00000000
0.12000000 0.01961668 0.00933384
0.11776554 0.04869851 0.01500000
0.12000000 0.04067050 0.01420855
0.04930743 0.02954836 0.01500000
0.03278888 0.00000000 0.01102768
0.12000000 0.04851613 0.01235467
0.03308267 0.06500000 0.00247433
0.01430166 0.03641438 0.01500000
0.01863072 0.00000000 0.00855047
0.03191965 0.01084851 0.00000000
0.00785667 0.00208379 0.00000000
0.11818779 0.00000000 0.00064588
0.04118507 0.00000000 0.01186289
0.06419780 0.05738504 0.00000000
0.10633810 0.02008110 0.01500000
0.11697829 0.00000000 0.00698141
0.10799606 0.03031805 0.01500000
0.11476054 0.02438224 0.01500000
0.06641865 0.00000000 0.00661194
0.00000000 0.05370945 0.00511220
0.03321170 0.05297087 0.01500000
0.06285872 0.03647641 0.00000000
0.01453488 0.04825647 0.00000000
0.04683460 0.06296775 0.00000000
0.04563339 0.01836654 0.00000000
0.11934155 0.01616854 0.01500000
0.03132997 0.03063650 0.00000000
0.11368218 0.06500000 0.01374806
0.10530154 0.02470141 0.01500000
0.11455877 0.06500000 0.00639471
0.04231603 0.00051193 0.00000000
0.04122665 0.06500000 0.00901199
0.02330088 0.02918719 0.01500000
0.00273973 0.01096875 0.00000000
0.11793587 0.00000000 0.01217168
0.04408998 0.01424183 0.00000000
0.09889775 0.04216233 0.00000000
0.04308292 0.06500000 0.00929664
0.12000000 0.03237655 0.01243576
0.05380955 0.00000000 0.00967272
0.06699242 0.02817329 0.01500000
0.00000000 0.04127354 0.00317698
0.00697785 0.01186816 0.00000000
0.00129200 0.06500000 0.00089603
0.07293056 0.02632447 0.01500000
0.05357150 0.04415651 0.01500000
0.08567724 0.05740734 0.00000000
0.02401267 0.03504114 0.01500000
0.11316691 0.05691289 0.01500000
0.11460156 0.03395389 0.00000000
0.01012221 0.02249637 0.01500000
0.00000000 0.04415910 0.00123282
0.09948061 0.02481500 0.01500000
0.00000000 0.05048079 0.00968073
0.11310223 0.06500000 0.00813445
0.09941359 0.06500000 0.00867517
0.08534189 0.01209486 0.00000000
0.05140017 0.04083303 0.01500000
0.11227496 0.01470644 0.00000000
0.09883893 0.02321964 0.01500000
0.09633393 0.03599226 0.01500000
0.02874215 0.05383040 0.00000000
0.08009599 0.04606814 0.00000000
0.04879077 0.01648256 0.00000000
0.08902378 0.01547690 0.00000000
0.02226743 0.01051669 0.01500000
0.10717795 0.00691868 0.00000000
0.06554096 0.02098734 0.00000000
0.12000000 0.05242239 0.00465060
0.04615383 0.06080404 0.01500000
0.00000000 0.05246641 0.00984290
0.01260307 0.00734383 0.01500000
0.03133049 0.04829443 0.01500000
0.11696044 0.06500000 0.01402807
0.05134058 0.04264564 0.01500000
0.08085524 0.03501976 0.01500000
0.04028689 0.04872029 0.01500000
0.11203692 0.03499973 0.00000000
0.06924880 0.05934550 0.01500000
0.04266460 0.00839451 0.01500000
0.01047391 0.01320039 0.00000000
0.05201036 0.00165342 0.01500000
0.12000000 0.01135432 0.00604307
0.03637213 0.00818550 0.01500000
0.10573487 0.03885023 0.01500000
0.08641528 0.00000000 0.01363324
0.06841357 0.06500000 0.00135665
0.12000000 0.04834337 0.01420673
0.00232917 0.02092186 0.01500000
0.00876147 0.00000000 0.00470565
0.00166082 0.05765217 0.01500000
0.11189146 0.00000000 0.00171322
0.09527811 0.05557331 0.00000000
0.05827628 0.00000000 0.01377470
0.08204907 0.06342300 0.01500000
0.02509103 0.05503515 0.00000000
0.00173157 0.05949562 0.01500000
0.10084596 0.00021693 0.01500000
0.05479869 0.03081913 0.01500000
0.03420010 0.06500000 0.00738462
0.00021994 0.02580124 0.01500000
0.05577627 0.02654330 0.01500000
0.04321769 0.06500000 0.00437146
0.02800727 0.03541873 0.00000000
0.00378614 0.00113966 0.00000000
0.09745395 0.06500000 0.01166437
0.08776344 0.00315535 0.01500000
0.08823860 0.04735691 0.01500000
0.05674716 0.01920652 0.00000000
0.04737330 0.05639660 0.00000000
0.05505977 0.06211568 0.01500000
0.03073353 0.06500000 0.01065567
0.08676057 0.00427565 0.01500000
0.07399681 0.00950657 0.01500000
0.04298401 0.05039178 0.01500000
0.10611450 0.00832011 0.01500000
0.01811193 0.05843929 0.01500000
0.00791269 0.01658060 0.01500000
0.11582890 0.00373578 0.00000000
0.02931663 0.06400086 0.00000000
0.09749467 0.01349793 0.01500000
0.04767013 0.00730216 0.01500000
0.03124643 0.06500000 0.01432519
0.08107657 0.02445640 0.01500000
0.00856284 0.01394800 0.01500000
0.01910113 0.06500000 0.00749959
0.05092919 0.01529217 0.00000000
0.00774869 0.02672814 0.00000000
0.03013127 0.00226223 0.01500000
0.11374604 0.04021760 0.00000000
0.00594095 0.06073701 0.01500000
0.11540122 0.02185836 0.01500000
0.01651094 0.05711458 0.00000000
0.07352423 0.05075296 0.01500000
0.05079218 0.02408513 0.00000000
0.08090084 0.06500000 0.00104844
0.00000000 0.00305257 0.01414052
0.08122694 0.05738417 0.01500000
0.07285049 0.00000000 0.00367347
0.09505046 0.03200126 0.01500000
0.11393115 0.01073416 0.00000000
0.07561986 0.00414759 0.00000000
0.11139263 0.05811389 0.01500000
0.08865932 0.04253434 0.01500000
0.04585507 0.03302851 0.00000000
0.01846338 0.02177815 0.01500000
0.01216254 0.06500000 0.00263742
0.11256174 0.00777895 0.00000000
0.07990790 0.03368224 0.01500000
0.02273509 0.00000000 0.00442506
0.08369236 0.06287228 0.00000000
0.04699356 0.03225505 0.01500000
0.07276498 0.00028398 0.01500000
0.10534701 0.06389684 0.00000000
0.00000000 0.04207665 0.00901588
0.11012632 0.01134977 0.01500000
0.05346790 0.04522788 0.00000000
0.00624702 0.00595660 0.00000000
0.07682293 0.02057199 0.00000000
0.02543933 0.00000000 0.00257560
0.09755214 0.01548819 0.00000000
0.10420041 0.05005253 0.01500000
0.02139338 0.01836602 0.00000000
0.00000000 0.04016489 0.00841661
0.07127997 0.05111787 0.01500000
0.09079256 0.02692960 0.00000000
0.00000000 0.02888614 0.00365694
0.10628677 0.06500000 0.01321431
0.07105212 0.00000000 0.00067189
0.08872905 0.00000000 0.00746997
0.10036382 0.05542592 0.00000000
0.03534207 0.00000000 0.00568750
0.07862778 0.02931464 0.01500000
0.00000000 0.04778144 0.00985440
0.10860133 0.06453380 0.01500000
0.09534119 0.05885147 0.01500000
0.07883230 0.06500000 0.01484696
0.03049014 0.06500000 0.01099990
0.07940630 0.03008663 0.00000000
0.06227663 0.06003764 0.01500000
0.12000000 0.00796780 0.00492402
0.06607761 0.03988406 0.00000000
0.11773437 0.03942363 0.00000000
0.04203539 0.06500000 0.00103935
0.01259468 0.00669189 0.01500000
0.00721803 0.01451863 0.01500000
0.04374012 0.00000000 0.00184092
0.00415407 0.00994285 0.01500000
0.07880044 0.00683172 0.00000000
0.08549375 0.00721154 0.00000000
0.05216123 0.00257371 0.01500000
0.04706706 0.00708505 0.01500000
0.00973164 0.06500000 0.00700027
0.07545434 0.05024063 0.01500000
0.11071087 0.04452586 0.01500000
0.10971541 0.00948037 0.00000000
0.03228074 0.05498549 0.00000000
0.07824057 0.03318990 0.00000000
0.03365965 0.04130647 0.01500000
0.11866989 0.05490770 0.00000000
0.09848919 0.03611612 0.00000000
0.01220083 0.04980358 0.00000000
0.03449164 0.02510691 0.01500000
0.00000000 0.02300582 0.01317926
0.08761186 0.04765091 0.00000000
0.02450233 0.06447389 0.00000000
0.09595406 0.00097255 0.00000000
0.05603960 0.04324157 0.00000000
0.11050051 0.06500000 0.00811160
0.04340054 0.06500000 0.00308201
0.04933683 0.02148486 0.00000000
0.04900894 0.02900821 0.00000000
0.06594018 0.02670503 0.00000000
0.00339225 0.04498929 0.00000000
0.04700230 0.00987213 0.01500000
0.00151679 0.01794591 0.00000000
0.08389179 0.01254056 0.00000000
0.05996608 0.06500000 0.00399896
0.08520935 0.04793805 0.00000000
0.10491556 0.00475412 0.01500000
0.05836866 0.01123399 0.01500000
0.11694405 0.01685687 0.01500000
0.02255705 0.05099075 0.00000000
0.10150789 0.02852923 0.01500000
0.06983546 0.03849890 0.00000000
0.06488786 0.00086289 0.00000000
0.01979943 0.02580494 0.01500000
0.09435241 0.03597185 0.00000000
0.06499787 0.06361728 0.01500000
0.04867481 0.00371433 0.01500000
0.07024372 0.06500000 0.00867056
0.05028150 0.00000000 0.00462767
0.10723881 0.02238167 0.01500000
0.08202964 0.00184987 0.01500000
0.05757920 0.05650771 0.01500000
0.03246285 0.00000000 0.00715527
0.02688519 0.00000000 0.00928012
0.12000000 0.06265892 0.00356995
0.00275296 0.00332709 0.00000000
0.09736987 0.04558038 0.01500000
0.03382030 0.01562728 0.01500000
0.00876465 0.02237122 0.01500000
0.10004434 0.06234523 0.01500000
0.09679171 0.05092574 0.00000000
0.01328554 0.03187913 0.00000000
0.02370907 0.02854776 0.00000000
0.02835274 0.04556252 0.00000000
0.10191070 0.00019913 0.01500000
0.11817866 0.04756448 0.00000000
0.01354071 0.00000000 0.01320849
0.08135162 0.06183971 0.01500000
0.11222822 0.03726329 0.00000000
0.12000000 0.06073730 0.00860118
0.07755256 0.04377261 0.01500000
0.03331476 0.04568874 0.00000000
0.01785530 0.00000000 0.00906713
0.10353064 0.01748481 0.00000000
0.09133260 0.03969256 0.01500000
0.02077477 0.00000000 0.00763466
0.00000000 0.06247732 0.00452284
0.07372730 0.00674002 0.01500000
0.08249414 0.06500000 0.00976032
0.00000000 0.04836585 0.00274868
0.00000000 0.01189687 0.00748840
0.05906786 0.06500000 0.00420534
0.00000000 0.05395586 0.00521612
0.10639028 0.06362676 0.00000000
0.07502579 0.00015128 0.00000000
0.07764027 0.06036303 0.01500000
0.07830663 0.01644579 0.01500000
0.10762654 0.00000000 0.01459899
0.02434639 0.06500000 0.00494874
0.11941026 0.03077845 0.00000000
0.08742743 0.00000000 0.01248101
0.05470705 0.05018482 0.01500000
0.00000000 0.06025569 0.00654656
0.09337116 0.01745255 0.00000000
0.09274904 0.04482313 0.00000000
0.05630610 0.01448165 0.01500000
0.00000000 0.06259116 0.01054902
0.10943894 0.00304593 0.00000000
0.01684411 0.03181950 0.01500000
0.01287977 0.03658961 0.01500000
0.04352708 0.01689791 0.00000000
0.08670394 0.00129172 0.01500000
0.03679560 0.00888621 0.00000000
0.06689371 0.00538149 0.01500000
0.05144082 0.00000000 0.01090905
0.08161440 0.05362792 0.01500000
0.11362571 0.04339744 0.01500000
0.06148686 0.02802635 0.00000000
0.05454436 0.06500000 0.00426951
0.00000000 0.05329304 0.00346320
0.05549708 0.03798953 0.00000000
0.08859107 0.00283428 0.01500000
0.05884228 0.00136767 0.01500000
0.09956001 0.00000000 0.00199988
0.03490938 0.04058865 0.00000000
0.03515562 0.01723136 0.00000000
0.03152880 0.06500000 0.00091808
0.00309690 0.00756716 0.01500000
0.12000000 0.03767818 0.01328663
0.11759739 0.05386208 0.00000000
0.00622136 0.01114703 0.00000000
0.03760475 0.04630036 0.01500000
0.02554301 0.00000000 0.00481176
0.07929087 0.01129417 0.01500000
0.01021688 0.01970812 0.01500000
0.00049416 0.01482255 0.00000000
0.10255902 0.05854210 0.01500000
0.07152850 0.04073998 0.00000000
0.02918630 0.06500000 0.01359422
0.00740650 0.00237851 0.00000000
0.01252712 0.04916358 0.01500000
0.02966401 0.06500000 0.01275646
0.03754184 0.03410244 0.01500000
0.08444039 0.02379935 0.01500000
0.10928271 0.06500000 0.01270318
0.05364504 0.00000000 0.01325976
0.06235207 0.01216783 0.01500000
0.10169197 0.02327187 0.00000000
0.02406207 0.04728206 0.00000000
0.07489365 0.02344527 0.00000000
0.03720107 0.00000000 0.01210985
0.03730984 0.03980683 0.00000000
0.03733708 0.00016278 0.01500000
0.11401052 0.06445769 0.00000000
0.03773385 0.04369356 0.00000000
0.11513839 0.01272428 0.01500000
0.10260709 0.00208814 0.01500000
0.10831947 0.00000000 0.00672111
0.04628180 0.04627627 0.01500000
0.00000000 0.03955430 0.00831221
0.05058795 0.04642018 0.00000000
0.09759357 0.06436873 0.01500000
0.05076324 0.03461386 0.00000000
0.03132986 0.04784026 0.01500000
0.12000000 0.00418449 0.01223076
0.12000000 0.01121388 0.01225097
0.09322034 0.06024956 0.01500000
0.10818372 0.03510692 0.01500000
0.04035384 0.04910742 0.01500000
0.05666561 0.00458226 0.01500000
0.02799229 0.01462840 0.01500000
0.10268538 0.03049039 0.01500000
0.09784274 0.00000000 0.01391954
0.05238840 0.03364257 0.00000000
0.11731483 0.00481644 0.00000000
0.00047793 0.02059505 0.01500000
0.00212300 0.04877121 0.00000000
0.07895139 0.06500000 0.00752621
0.10399378 0.01367408 0.00000000
0.02467538 0.06325478 0.01500000
0.00684018 0.00000000 0.01181447
0.08901069 0.00150857 0.00000000
0.00000000 0.02356882 0.01308722
0.00597390 0.00000000 0.00139179
0.01929412 0.05839562 0.01500000
0.07555362 0.00000000 0.00936312
0.01566085 0.01343002 0.00000000
0.02009959 0.00290994 0.00000000
0.11676405 0.06500000 0.00234420
0.02750344 0.02230672 0.00000000
0.01828258 0.03946747 0.00000000
0.08397678 0.05998306 0.01500000
0.10201333 0.05119572 0.00000000
0.10239641 0.06464232 0.01500000
0.08225167 0.06451005 0.00000000
0.05988688 0.00263148 0.00000000
0.02742609 0.06500000 0.00642149
0.09522672 0.02037879 0.01500000
0.05987482 0.00000000 0.00967568
0.07165028 0.06500000 0.01217781
0.02057428 0.05547951 0.01500000
0.03878702 0.03973374 0.00000000
0.03159326 0.00223279 0.01500000
0.02619476 0.00397163 0.01500000
0.11125668 0.02327474 0.00000000
0.11326773 0.00980665 0.00000000
0.04662167 0.05999667 0.01500000
0.08580822 0.04196563 0.01500000
0.09567620 0.05611835 0.01500000
0.00450959 0.06500000 0.01359999
0.09625929 0.06500000 0.00416001
0.08508842 0.01029816 0.01500000
0.11449555 0.05577380 0.01500000
0.09627071 0.02421777 0.01500000
0.10868098 0.06500000 0.00060117
0.05560428 0.00880949 0.00000000
0.09220609 0.04681126 0.01500000
0.07139102 0.00000000 0.00419547
0.08281673 0.06500000 0.01050210
0.11572595 0.06483849 0.01500000
0.12000000 0.02569454 0.01458737
0.12000000 0.01480363 0.00258835
0.04047750 0.01945738 0.01500000
0.02289644 0.01068080 0.00000000
0.12000000 0.03429422 0.01094870
0.04755444 0.02737274 0.00000000
0.04625603 0.02403940 0.00000000
0.11862685 0.00332752 0.00000000
0.12000000 0.03670713 0.01115245
0.06082610 0.03809018 0.01500000
0.06878410 0.06076137 0.01500000
0.01041100 0.06500000 0.00250699
0.10343815 0.05169383 0.01500000
0.03656707 0.06500000 0.01179604
0.08923143 0.00574734 0.00000000
0.12000000 0.06176584 0.00285710
0.10287227 0.04189083 0.00000000
0.06093544 0.02860055 0.01500000
0.07365524 0.06500000 0.01094750
0.11676779 0.06453864 0.00000000
0.10285362 0.00961055 0.00000000
0.03212464 0.01911794 0.00000000
0.04776239 0.03145102 0.01500000
0.00317133 0.00000000 0.00129617
0.10865198 0.00000000 0.00526542
0.07081728 0.04248410 0.00000000
0.04467290 0.03752265 0.01500000
0.09429968 0.04792969 0.00000000
0.09154555 0.06120441 0.01500000
0.02064422 0.04169443 0.00000000
0.10829274 0.02836821 0.01500000
0.00000000 0.02285806 0.00250380
0.10202932 0.04365909 0.01500000
0.11239906 0.04197510 0.01500000
0.03911104 0.04753524 0.00000000
0.08751419 0.00572637 0.00000000
0.08261073 0.05623591 0.01500000
0.02049337 0.01749226 0.01500000
0.01836663 0.00116315 0.01500000
0.05939516 0.06356626 0.01500000
0.11363152 0.00000000 0.00140153
0.04232036 0.00000000 0.00599004
0.08511922 0.04299530 0.01500000
0.00051429 0.01505103 0.01500000
0.03843067 0.01977552 0.00000000
0.04092164 0.02722795 0.00000000
0.04240193 0.00000000 0.01059764
0.00000000 0.02398041 0.00163332
0.01573894 0.06500000 0.01433458
0.11652291 0.06500000 0.00890478
0.07953928 0.01741102 0.00000000
0.02297329 0.01357430 0.01500000
0.00000000 0.02277901 0.01473531
0.00000000 0.05690944 0.01160878
0.07003029 0.01043370 0.01500000
0.00748307 0.04858717 0.01500000
0.09202399 0.03516811 0.01500000
0.09270076 0.01091900 0.00000000
0.09691403 0.06500000 0.00632598
0.00672957 0.02514596 0.00000000
0.08378317 0.05211599 0.01500000
0.02951361 0.00573815 0.00000000
0.06830628 0.06398843 0.01500000
0.11448656 0.06123215 0.00000000
0.09583551 0.04134836 0.00000000
0.05477048 0.06500000 0.00481594
0.02390782 0.00253214 0.01500000
0.11096166 0.06500000 0.00804105
0.00000000 0.03069332 0.00906852
0.02680909 0.06500000 0.00665157
0.04034420 0.04125391 0.00000000
0.01147730 0.00406186 0.01500000
0.04675733 0.00000000 0.00044912
0.04011165 0.01194938 0.01500000
0.09444380 0.05120730 0.01500000
0.00051699 0.06500000 0.00894134
0.11834359 0.00000000 0.01014008
0.01993688 0.02957985 0.00000000
0.05945593 0.03056796 0.01500000
0.10740383 0.06500000 0.01238907
0.05648559 0.03061323 0.01500000
0.10091712 0.04198177 0.00000000
0.03621425 0.04983990 0.01500000
0.05775366 0.01249125 0.00000000
0.00097327 0.06367433 0.01500000
0.08670991 0.01198689 0.01500000
0.00170617 0.00926882 0.01500000
0.00687965 0.00781909 0.01500000
0.04558519 0.03195139 0.00000000
0.10058807 0.04267932 0.01500000
0.00000000 0.00563107 0.00898695
0.09459869 0.03264631 0.01500000
0.00000000 0.01874422 0.01392946
0.00968049 0.05404264 0.01500000
0.06068224 0.03552009 0.01500000
0.03943414 0.05983422 0.01500000
0.03404626 0.03649069 0.01500000
0.10192467 0.00346713 0.01500000
0.07506937 0.04428067 0.01500000
0.04139474 0.06070394 0.01500000
0.00000000 0.06112820 0.00554315
0.09319148 0.00000000 0.01128220
0.08292899 0.01013004 0.01500000
0.10349623 0.03984441 0.00000000
0.09796765 0.02416245 0.01500000
0.04835466 0.06500000 0.00478432
0.10534496 0.00000000 0.00869382
0.05670590 0.03528583 0.00000000
0.00000000 0.00573335 0.01328596
0.06242405 0.02234983 0.01500000
0.01540159 0.03687959 0.00000000
0.05253541 0.03012740 0.00000000
0.02793540 0.03548460 0.00000000
0.08394913 0.04412238 0.00000000
0.09790221 0.00372070 0.00000000
0.10248969 0.00000000 0.01332072
0.05915620 0.06434683 0.00000000
0.06607247 0.04326842 0.00000000
0.09353791 0.03564528 0.01500000
0.04435358 0.02678135 0.00000000
0.00125107 0.03041946 0.00000000
0.07971006 0.04510776 0.01500000
0.08717744 0.05554360 0.01500000
0.00000000 0.01637645 0.00874346
0.04906426 0.05402811 0.01500000
0.10365272 0.03446915 0.00000000
0.00319391 0.02065694 0.00000000
0.01513418 0.06500000 0.00090068
0.08320006 0.00570220 0.00000000
0.12000000 0.02532938 0.00340174
0.01629236 0.06500000 0.00296628
0.00411051 0.04053629 0.01500000
0.00000000 0.00421517 0.01438644
0.08855595 0.02615035 0.01500000
0.07633360 0.05658424 0.00000000
0.00000000 0.02188166 0.00903047
0.09976821 0.03763015 0.00000000
0.09622369 0.05431036 0.00000000
0.05612293 0.02339049 0.00000000
0.08923050 0.05077939 0.00000000
0.08139839 0.03992280 0.01500000
0.09460614 0.05115587 0.01500000
0.12000000 0.04793456 0.00006517
0.04365862 0.02765102 0.00000000
0.08773266 0.04160590 0.00000000
0.05387652 0.03241722 0.01500000
0.02623290 0.06500000 0.00285516
0.02674314 0.03903739 0.00000000
0.00000000 0.02653294 0.00733103
0.06169479 0.02260014 0.00000000
0.06708045 0.06500000 0.00767734
0.08393061 0.03937509 0.01500000
0.04288992 0.02424130 0.01500000
0.03245540 0.06500000 0.00532733
0.06839161 0.06500000 0.00784061
0.10532019 0.01475812 0.01500000
0.02889863 0.01349204 0.01500000
0.05822998 0.06251520 0.00000000
0.05066754 0.05806257 0.00000000
0.05470777 0.06031539 0.01500000
0.08533957 0.05912934 0.00000000
0.07708304 0.04515335 0.00000000
0.06091219 0.00323677 0.01500000
0.01721675 0.05689857 0.00000000
0.12000000 0.05875746 0.01407315
0.10208924 0.00119229 0.01500000
0.05933996 0.02828013 0.01500000
0.09115509 0.02875164 0.00000000
0.03696850 0.06500000 0.00707154
0.06881358 0.01140878 0.01500000
0.11095102 0.03962270 0.01500000
0.05976714 0.01482296 0.01500000
0.09472439 0.01761907 0.00000000
0.08707387 0.01367135 0.00000000
0.03710847 0.04477804 0.01500000
0.02077219 0.04123659 0.00000000
0.11196451 0.05028716 0.00000000
0.09112351 0.06500000 0.00421154
0.03937587 0.03891310 0.00000000
0.02656555 0.00829165 0.01500000
0.00913827 0.00000000 0.01392103
0.05494198 0.00984600 0.00000000
0.01593730 0.04808264 0.00000000
0.00286590 0.03156946 0.00000000
0.04285243 0.05243317 0.01500000
