# .PCD v0.7 - Point Cloud Data file format
VERSION 0.7
FIELDS x y z rgb
SIZE 4 4 4 4
TYPE F F F U
COUNT 1 1 1 1
WIDTH 1134
HEIGHT 1
VIEWPOINT 0 0 0 1 0 0 0
POINTS 1134
DATA ascii
-0.0094070695 0.032499999 0.00070017 4278190080
-0.0092368498 -0.0097588692 0.015 4278190080
-0.058761802 -0.027276939 0 4278190080
-0.0625 -0.02034802 0.0041902 4278190080
-0.035536271 -0.028549369 0.015 4278190080
0.012465641 0.032499999 0.00212212 4278190080
0.057499997 0.01667634 0.0071889102 4278190080
-0.057700962 -0.0036238395 0.015 4278190080
-0.023985568 0.023902271 0.015 4278190080
-0.0020883493 -0.022342589 0.015 4278190080
0.018916301 0.032499999 0.01078818 4278190080
-0.0625 -0.020019978 0.01460376 4278190080
0.024525858 0.032499999 0.01213398 4278190080
-0.04725254 -0.024738099 0 4278190080
-0.02233582 0.029581472 0.015 4278190080
-0.024184141 0.027980331 0.015 4278190080
-0.06017901 -0.019133709 0 4278190080
-0.00056749955 -0.031488538 0 4278190080
0.051892489 0.0042665116 0.015 4278190080
0.019161731 0.031791344 0 4278190080
0.031228349 -0.031014189 0.015 4278190080
0.02739206 0.032499999 0.00504496 4278190080
0.047193348 0.016455162 0 4278190080
0.0246104 0.032499999 0.01142904 4278190080
0.022032581 0.02589706 0.015 4278190080
-0.041834369 -0.011957768 0.015 4278190080
0.034748361 0.0078061819 0 4278190080
0.051225737 0.032499999 0.00066100998 4278190080
-0.0082157291 0.0019052401 0.015 4278190080
-0.0032960698 -0.0013632886 0.015 4278190080
-0.016366359 0.021239772 0.015 4278190080
-0.02957337 0.032499999 0.00153676 4278190080
-0.0078326911 -0.02179651 0.015 4278190080
-0.041887879 -0.011986729 0 4278190080
0.013391294 0.02127048 0.015 4278190080
-0.050628878 0.017019242 0 4278190080
0.0045880079 -0.0064183585 0 4278190080
0.041782387 -0.032499999 0.00019971 4278190080
-0.0625 -0.017012209 0.0092823701 4278190080
0.057499997 -0.023518199 0.01132983 4278190080
-0.0011034086 -0.032499999 0.00084349001 4278190080
-0.050858371 0.023713931 0.015 4278190080
-0.047046818 0.0091981925 0.015 4278190080
-0.0330595 -0.0005171895 0.015 4278190080
0.044590808 -0.0031957496 0 4278190080
-0.021221392 0.0074715205 0.015 4278190080
0.010520503 0.032499999 0.00773102 4278190080
-0.03214173 -0.0054970197 0 4278190080
-0.046849787 0.0079704225 0.015 4278190080
-0.0018725209 -0.032499999 0.00727836 4278190080
-0.04402227 -0.015982799 0 4278190080
-0.0041231588 0.032499999 0.00384208 4278190080
0.043343373 -0.00056662783 0.015 4278190080
-0.04763018 -0.011633828 0 4278190080
0.057487018 -0.0037805997 0.015 4278190080
0.012458138 -0.020196149 0.015 4278190080
-0.0625 0.0090745725 0.00179267 4278190080
-0.05885233 0.02589713 0.015 4278190080
0.028761081 -0.028366949 0.015 4278190080
0.034245037 -0.010399248 0 4278190080
-0.03174863 -0.024483599 0 4278190080
-0.013260979 -0.032499999 0.01216831 4278190080
0.01513233 0.031846754 0.015 4278190080
0.045765027 -0.0020615682 0 4278190080
-0.01618965 0.02749896 0 4278190080
-0.014945611 -0.011939449 0.015 4278190080
-0.048088402 -0.029522268 0 4278190080
-0.0313688 -0.0085902195 0.015 4278190080
-0.04216921 -0.008193329 0 4278190080
-0.024406452 0.02212844 0.015 4278190080
0.040094256 -0.02941322 0.015 4278190080
-0.0625 -0.024269 0.00512886 4278190080
-0.06194232 0.011902351 0.015 4278190080
-0.04210034 -0.02919527 0.015 4278190080
-0.056984421 0.032499999 0.0075650699 4278190080
0.0022064373 0.010167912 0 4278190080
-0.01656558 -0.032499999 0.0040721502 4278190080
0.04525204 -0.013354849 0.015 4278190080
-0.01798762 -0.0025107879 0.015 4278190080
0.044461139 0.032499999 0.0091694398 4278190080
0.044832408 -0.0080283992 0 4278190080
-0.031401128 0.0021710619 0 4278190080
0.011252813 0.0093448795 0.015 4278190080
0.057499997 -0.032000549 0.00276153 4278190080
-0.02426663 -0.03240623 0 4278190080
-0.037012652 0.011124771 0 4278190080
-0.01835373 -0.021855708 0 4278190080
0.010813773 0.022230361 0.015 4278190080
-0.01044267 0.032499999 0.01400104 4278190080
0.042636693 0.032499999 0.0079524098 4278190080
0.019301407 -0.02740036 0 4278190080
0.010956131 0.032499999 0.01108068 4278190080
0.016537912 -0.027169399 0 4278190080
-0.02655312 0.022273332 0.015 4278190080
0.024360359 0.032499999 0.00566928 4278190080
0.054365747 0.032499999 0.0035360099 4278190080
0.028885894 -0.032419428 0 4278190080
-0.0073785782 0.032499999 0.00214676 4278190080
-0.0014817193 0.032499999 0.01269463 4278190080
-0.024429779 0.013751801 0.015 4278190080
0.057499997 -0.025293358 0.01207671 4278190080
-0.00028413162 0.018855222 0 4278190080
0.028155528 0.020686902 0 4278190080
0.020082228 0.029166702 0.015 4278190080
0.0079646111 0.018946949 0.015 4278190080
-0.059235189 0.0048525296 0.015 4278190080
-0.028476801 -0.032499999 0.0067183399 4278190080
0.057499997 -0.027230978 0.0063975402 4278190080
0.040777817 0.019914351 0 4278190080
0.034199417 -0.020869769 0 4278190080
0.0084606409 0.029318042 0.015 4278190080
0.051855102 0.01222695 0.015 4278190080
-0.01827962 -0.02262795 0.015 4278190080
0.048326463 0.02950228 0.015 4278190080
-0.030732188 -0.032499999 0.0090613803 4278190080
-0.05029745 0.027877193 0 4278190080
-0.05367171 0.01586261 0.015 4278190080
0.035626702 0.010460541 0 4278190080
0.039483637 0.00096549094 0 4278190080
-0.0080652311 0.0069974102 0 4278190080
0.045449227 0.029682402 0.015 4278190080
0.03631264 -0.01878874 0.015 4278190080
0.036465771 -0.026659109 0.015 4278190080
-0.04353768 -0.025100838 0 4278190080
-0.02087545 0.01130002 0 4278190080
-0.05952942 -0.026905049 0 4278190080
-0.039342739 0.025999323 0 4278190080
0.019839823 -0.016057029 0 4278190080
-0.0625 0.013790462 0.01365143 4278190080
0.054280512 0.010140531 0 4278190080
-0.02412552 0.0017033927 0 4278190080
-0.012218751 -0.0095675793 0.015 4278190080
-0.045037173 0.022578321 0.015 4278190080
0.030348673 0.032499999 0.0035550101 4278190080
0.0043234527 -0.027250148 0.015 4278190080
-0.0625 0.0095098913 0.01354812 4278190080
0.045486592 -0.010752019 0 4278190080
-0.02749848 -0.0034094192 0 4278190080
-0.027017921 -0.028788889 0.015 4278190080
-0.0047500916 0.0065858811 0.015 4278190080
-0.0625 0.004135482 0.00110897 4278190080
0.0091224909 -0.0089104883 0.015 4278190080
-0.023679908 -0.016654249 0 4278190080
-0.050082512 0.02420802 0.015 4278190080
-0.0064520501 0.032363631 0 4278190080
0.04591886 0.00015924126 0.015 4278190080
0.018866062 0.01591998 0 4278190080
-0.0625 0.02938462 0.0098206103 4278190080
-0.0046069995 0.032499999 0.0084703797 4278190080
0.021923639 0.021795113 0 4278190080
-0.0098888092 -0.0013438594 0.015 4278190080
0.016880818 -0.032499999 0.01221409 4278190080
-0.02311061 -0.028181609 0.015 4278190080
0.026212841 -0.02341399 0 4278190080
-0.01319167 -0.0089537781 0.015 4278190080
0.048395403 0.0096978396 0.015 4278190080
0.037395783 -0.0053814389 0.015 4278190080
0.016965292 -0.023486488 0 4278190080
0.048262291 -0.021832719 0 4278190080
-0.03755644 -0.014024399 0.015 4278190080
0.057499997 0.015665662 0.0122261 4278190080
-0.0625 -0.0008238405 0.00471377 4278190080
-0.00020971149 0.024637222 0.015 4278190080
0.057499997 0.0088333897 0.0056429501 4278190080
0.011449143 -0.032311868 0 4278190080
0.037745483 0.0066041909 0 4278190080
-0.040115148 0.01551351 0.015 4278190080
0.0021298081 -0.03013064 0 4278190080
-0.01900145 0.028614011 0.015 4278190080
-0.025360279 0.023402993 0.015 4278190080
-0.0625 0.0063776821 0.00950626 4278190080
0.040400453 0.0092500113 0 4278190080
-0.023468629 -0.029520908 0.015 4278190080
0.049007811 0.0030718111 0.015 4278190080
0.033426069 0.02769972 0.015 4278190080
0.020526439 0.0057611018 0 4278190080
0.050064653 0.032499999 0.01315078 4278190080
-0.046750911 -0.027081339 0.015 4278190080
-0.0079793595 0.012505431 0.015 4278190080
0.057499997 -0.0035730079 0.01024039 4278190080
-0.026433479 -0.010065008 0 4278190080
-0.04689654 -0.032499999 0.00515586 4278190080
0.0203811 0.022148792 0 4278190080
-0.032182857 0.0058830529 0 4278190080
-0.0018018708 0.017972313 0.015 4278190080
0.0080738068 -0.022752119 0.015 4278190080
0.010007612 -0.030430948 0 4278190080
0.042267613 -0.030581059 0.015 4278190080
-0.033198439 -0.026080798 0.015 4278190080
0.011274263 0.01867665 0.015 4278190080
-0.015970349 0.032499999 0.0085888105 4278190080
-0.0625 0.027382981 0.0027923901 4278190080
-0.040707629 -0.032499999 0.00274083 4278190080
-0.00186681 0.01569039 0 4278190080
0.048444249 -0.032499999 0.0149781 4278190080
0.049051061 -0.01233911 0 4278190080
-0.02650328 0.017489802 0.015 4278190080
0.04432144 -0.029723238 0.015 4278190080
0.050914697 0.004156623 0.015 4278190080
0.02193521 -0.022834018 0.015 4278190080
-0.03858541 0.032013528 0 4278190080
0.0060560703 0.014872093 0 4278190080
0.0004593879 0.031723835 0.015 4278190080
0.055879779 -0.021834858 0 4278190080
-0.02281227 -0.010041438 0 4278190080
0.05303479 0.02210743 0 4278190080
0.0071626827 0.01588368 0.015 4278190080
-0.03928468 0.02113862 0.015 4278190080
0.028171048 -0.016237449 0 4278190080
-0.01761657 -0.029433399 0.015 4278190080
0.031967081 -0.030720569 0.015 4278190080
-0.020112321 -0.0031926092 0 4278190080
-0.017618969 0.0070534311 0 4278190080
-0.04013896 -0.0043316595 0.015 4278190080
0.056438483 -0.0077917185 0 4278190080
0.026385218 -0.0029932093 0 4278190080
-0.02011925 -0.032499999 0.0092823403 4278190080
-0.0043254197 -0.00077718869 0 4278190080
0.03892532 0.0030334406 0 4278190080
0.037718788 -0.001329869 0.015 4278190080
0.039893597 -0.0047093388 0 4278190080
0.037279062 -0.0032366086 0.015 4278190080
-0.02846266 -0.023388458 0.015 4278190080
0.022429258 -0.02198869 0.015 4278190080
-0.040246248 -0.010617709 0 4278190080
0.022163883 0.032499999 0.01239671 4278190080
-0.046523649 0.023522392 0 4278190080
0.038143642 -0.019707959 0 4278190080
0.025937773 0.032499999 0.0025741099 4278190080
-0.04904782 0.0146005 0 4278190080
-0.03899724 0.031956814 0.015 4278190080
-0.02071809 -0.01996487 0.015 4278190080
-0.0625 0.010678019 0.01373698 4278190080
0.0073295683 -0.0038894881 0 4278190080
-0.0080216005 0.027485151 0 4278190080
0.01334478 0.02716694 0.015 4278190080
-0.021095838 0.012993351 0 4278190080
-0.042970911 -0.0065797679 0.015 4278190080
0.00995031 0.0099521615 0 4278190080
0.014039919 -0.032499999 0.0104033 4278190080
0.044586368 0.0068684705 0 4278190080
0.0088451877 0.030602477 0 4278190080
0.043943882 -0.032499999 0.0018234201 4278190080
-0.03905369 0.022139352 0.015 4278190080
0.039746709 -0.01683878 0.015 4278190080
0.0109891 0.032499999 0.00165935 4278190080
0.004063338 0.029870722 0 4278190080
0.007448189 0.0063339509 0 4278190080
0.052646071 0.0055337623 0 4278190080
-0.05948396 -0.0024255887 0 4278190080
-0.02097214 0.032499999 0.00096486998 4278190080
0.022934072 0.016458999 0 4278190080
-0.041551217 0.020482153 0.015 4278190080
-0.014102612 0.0057964921 0.015 4278190080
0.038938291 -0.032499999 0.0015589501 4278190080
-0.0095410682 0.0021523125 0 4278190080
-0.022306278 -0.016192399 0.015 4278190080
0.022795178 0.031615674 0.015 4278190080
-0.0625 -0.02754977 0.0051201801 4278190080
0.0011915118 0.0031340122 0 4278190080
0.017968528 -0.0027104486 0 4278190080
0.053910069 0.032499999 0.00222464 4278190080
-0.0625 -0.010044089 0.01341503 4278190080
0.057368979 0.01004786 0.015 4278190080
-0.044554338 0.01696939 0 4278190080
-0.035395049 -0.015455708 0 4278190080
0.051355474 0.017702103 0 4278190080
0.012346573 0.013721481 0 4278190080
-0.040466569 -0.02248415 0 4278190080
0.033978142 -0.032499999 0.01062666 4278190080
-0.0625 0.0038872398 0.01182777 4278190080
-0.037535451 0.024683751 0 4278190080
0.017475069 0.032499999 0.00031182999 4278190080
-0.059326708 1.8402934e-05 0 4278190080
0.057499997 -0.0097897779 0.006335 4278190080
0.004230909 -0.0071104281 0.015 4278190080
-0.0625 -0.025371119 0.0096719302 4278190080
-0.05232425 -0.028974028 0 4278190080
-0.04951511 0.03007973 0.015 4278190080
-0.0099824592 -0.01433914 0.015 4278190080
0.052175947 -0.0085838791 0 4278190080
-0.045393519 0.032499999 0.0093658697 4278190080
-0.017809071 -0.032499999 0.00107555 4278190080
-0.0467535 0.03216283 0.015 4278190080
0.048606768 -0.019426169 0 4278190080
-0.037060231 -0.032499999 0.01129475 4278190080
0.057499997 -0.027455889 0.0029939499 4278190080
-0.03915108 0.017375201 0 4278190080
0.046689123 0.017813921 0.015 4278190080
0.034232669 -0.0058687981 0 4278190080
0.0053645 -0.020410409 0 4278190080
0.0069606006 -0.0060626995 0 4278190080
0.0070643201 0.0073097311 0 4278190080
-0.0021609515 -0.032499999 0.01441718 4278190080
-0.049864411 -0.032499999 0.01126918 4278190080
0.013145752 0.0052271821 0.015 4278190080
-0.04072585 -0.032499999 0.01055248 4278190080
-0.023613881 0.032499999 0.00081159 4278190080
0.0013045594 -0.027775709 0 4278190080
-0.032822251 -0.032499999 0.01017469 4278190080
0.028565831 0.021001503 0 4278190080
-0.048959579 0.032499999 0.0039079902 4278190080
-0.0625 -0.011370709 0.0066004801 4278190080
0.030445278 -0.02354493 0 4278190080
-0.057749819 0.011768542 0.015 4278190080
0.0094751492 0.024980683 0.015 4278190080
-0.01991814 0.014855511 0 4278190080
-0.054845791 -0.003045259 0.015 4278190080
0.02254466 0.032499999 0.00191677 4278190080
0.048804343 0.02869834 0.015 4278190080
-0.026113551 -0.032499999 0.0064096199 4278190080
-0.02403827 -0.032499999 0.00923023 4278190080
-0.03367782 -0.027463548 0.015 4278190080
-0.0086670816 0.0045354925 0 4278190080
-0.031538539 0.010307431 0 4278190080
-0.01571184 0.027021062 0 4278190080
-0.0040075891 -0.031295888 0.015 4278190080
-0.052942768 -0.020130478 0.015 4278190080
-0.0051130392 -0.0047012679 0 4278190080
0.029433258 -0.032499999 0.00087256997 4278190080
0.048698008 -0.027456358 0.015 4278190080
-0.05991317 0.02270472 0.015 4278190080
0.02901382 -0.0030572582 0 4278190080
-0.0052346513 0.0025158301 0.015 4278190080
-0.0018133409 -0.0012278706 0 4278190080
-0.045192212 -0.017796028 0.015 4278190080
0.0025412887 -0.026115639 0 4278190080
0.054490022 0.014043901 0.015 4278190080
0.053340651 0.0015502609 0.015 4278190080
-0.048222572 0.022884462 0.015 4278190080
0.017759502 -0.004561998 0.015 4278190080
0.0128076 0.0041418523 0 4278190080
-0.051491939 -0.018335829 0.015 4278190080
-0.031898551 0.01223667 0.015 4278190080
0.048114501 0.0095529109 0.015 4278190080
-0.043597408 0.02554981 0.015 4278190080
-0.023447748 -0.00068859011 0 4278190080
0.038726427 0.0068600327 0.015 4278190080
-0.059652291 0.01693403 0.015 4278190080
0.022159517 -0.032499999 0.0039961701 4278190080
0.00031080842 -0.02169304 0.015 4278190080
0.025645703 0.01372762 0 4278190080
-0.0341345 -0.009164039 0.015 4278190080
-0.025958009 -0.0079547595 0.015 4278190080
0.042779602 0.020276561 0.015 4278190080
0.012057371 0.032499999 0.00926717 4278190080
0.052382827 0.025742352 0 4278190080
0.044399999 0.031501412 0.015 4278190080
-0.0625 -0.0064585879 0.00166235 4278190080
-0.0625 0.01507058 0.0095312204 4278190080
-0.01837647 0.0029738508 0 4278190080
0.0057434067 -0.007891668 0.015 4278190080
0.04133705 -0.018588169 0.015 4278190080
0.0014190674 0.016805243 0.015 4278190080
-0.038726278 0.032499999 0.010655 4278190080
0.057499997 0.028070282 0.0086075496 4278190080
0.006052047 0.032499999 0.00093798997 4278190080
-0.024725489 -0.032499999 0.01349327 4278190080
-0.0012968108 0.021027382 0 4278190080
-0.026298001 -0.032183368 0.015 4278190080
-0.005270239 -0.030043138 0 4278190080
-0.054535139 -0.018227659 0 4278190080
0.00093799829 -0.032499999 0.01297043 4278190080
-0.036073729 -0.028449748 0.015 4278190080
-0.027422812 -0.032499999 0.0073603 4278190080
0.044480771 -0.0071677379 0.015 4278190080
0.035898313 0.017682172 0 4278190080
0.031869322 0.0059702508 0.015 4278190080
0.040329598 0.0012018718 0 4278190080
0.02005063 0.019683681 0 4278190080
-0.0041677319 -0.0076180883 0 4278190080
0.018402994 -0.032499999 0.00275436 4278190080
0.029035978 0.024209891 0 4278190080
-0.048128199 -0.016707638 0.015 4278190080
-0.058142379 0.032499999 0.0089206696 4278190080
0.013448082 -0.030307669 0.015 4278190080
-0.022985559 0.0056752414 0.015 4278190080
0.017508753 -0.0011150688 0 4278190080
-0.0051710382 -0.013416158 0 4278190080
-0.0086113699 0.0019137524 0.015 4278190080
0.007277362 0.00044739991 0.015 4278190080
0.046765357 -0.017094538 0 4278190080
-0.018532101 -0.0013989285 0.015 4278190080
0.0079193786 -0.0081553496 0 4278190080
0.0172932 -0.00076694041 0 4278190080
-0.032947071 -0.0012787096 0.015 4278190080
-0.050999481 0.0199535 0 4278190080
0.010869518 0.032499999 0.00088726002 4278190080
0.038626738 0.032325551 0 4278190080
0.057499997 -0.0032994486 0.0091230599 4278190080
0.027913406 0.032499999 0.01281028 4278190080
0.037884898 -0.027693419 0.015 4278190080
0.047495991 0.032499999 0.0055952598 4278190080
-0.028481219 -0.032499999 0.01120702 4278190080
0.044137374 -0.0086289085 0.015 4278190080
-0.027727298 -0.0092558488 0 4278190080
0.01762712 -0.01664535 0.015 4278190080
0.034478113 -0.032499999 0.00183309 4278190080
0.050217338 -0.0053715482 0.015 4278190080
-0.061750129 -0.0003644079 0 4278190080
0.040244848 -0.0055792984 0.015 4278190080
-0.055864371 -0.022189759 0 4278190080
-0.038198218 -0.032499999 0.01002 4278190080
-0.057600118 -0.032499999 0.0099188704 4278190080
0.025847986 -0.03129888 0.015 4278190080
-0.055612318 0.01645587 0.015 4278190080
-0.0031423494 -0.010812059 0.015 4278190080
0.057499997 -0.020234279 0.01160653 4278190080
0.033685602 0.032499999 0.01292489 4278190080
0.024778374 0.013361622 0 4278190080
0.016774222 -0.0096974894 0 4278190080
0.05177778 -0.030849138 0 4278190080
0.032505661 -0.010415319 0.015 4278190080
0.052695781 -0.019997979 0.015 4278190080
0.017786793 -0.019629339 0.015 4278190080
-0.020958051 -0.011554118 0.015 4278190080
0.038090579 -0.032499999 0.01387538 4278190080
0.057499997 0.01317713 0.01375388 4278190080
-0.044733688 0.020892411 0.015 4278190080
-0.0039494894 -0.026882889 0 4278190080
-0.003353741 -0.032499999 0.0029674601 4278190080
-0.028032951 0.030432574 0.015 4278190080
0.016876779 -0.0277812 0 4278190080
-0.04255731 -0.032499999 0.01064148 4278190080
-0.00014388934 0.020333603 0 4278190080
0.00095774978 0.032499999 0.0062644901 4278190080
0.048461907 -0.01299491 0 4278190080
-0.03347725 0.02906419 0.015 4278190080
-0.022258859 0.0031513795 0 4278190080
-0.0012296513 -0.032499999 0.01476438 4278190080
0.057499997 0.0019960403 0.00163303 4278190080
-0.051150981 0.029817753 0.015 4278190080
0.022213429 0.028483409 0.015 4278190080
-0.0625 0.014634423 0.01270504 4278190080
0.040081821 -0.0042173397 0.015 4278190080
-0.04042187 0.032499999 0.0099212499 4278190080
-0.06235737 0.026835982 0.015 4278190080
-0.05098236 0.032499999 0.01101777 4278190080
-0.04104903 0.032499999 0.01380988 4278190080
-0.042017501 0.030795813 0.015 4278190080
-0.05920184 -0.01010369 0 4278190080
-0.030733611 -0.027769819 0.015 4278190080
0.055670597 0.0045875795 0.015 4278190080
-0.029133711 -0.027242478 0.015 4278190080
0.042067528 0.024213661 0 4278190080
0.014362209 0.010412343 0.015 4278190080
0.048325554 0.0043957829 0 4278190080
0.036677487 -0.0050277282 0.015 4278190080
-0.012169149 -0.032499999 0.01090723 4278190080
0.035319231 -0.013931019 0 4278190080
-0.037077852 -0.03071183 0.015 4278190080
0.0012182221 -0.018079439 0.015 4278190080
0.0068282709 0.02194611 0 4278190080
0.031230927 0.0044980422 0 4278190080
-0.04683901 -0.029450588 0.015 4278190080
-0.039953329 0.0092790015 0.015 4278190080
0.049962573 -0.010064999 0.015 4278190080
-0.059917219 0.021925103 0.015 4278190080
0.054764949 -0.010207258 0.015 4278190080
-0.0038772114 0.032499999 0.0083189001 4278190080
0.0093129203 0.021762002 0 4278190080
-0.012289219 0.03080336 0 4278190080
0.0084828883 -0.01792755 0.015 4278190080
-0.06062524 0.032499999 0.0018172 4278190080
0.053773709 -0.012056539 0.015 4278190080
0.039780729 0.0077216811 0 4278190080
-0.050251842 0.027252641 0.015 4278190080
-0.0055468902 -0.0035057385 0.015 4278190080
-0.061110228 0.0083823018 0.015 4278190080
-0.016040441 0.021949492 0 4278190080
-0.04904902 0.032499999 0.0073932102 4278190080
0.03248702 0.028139099 0.015 4278190080
0.018178627 0.032499999 0.00643487 4278190080
0.019488417 -0.031626619 0 4278190080
-0.060643859 0.031291001 0.015 4278190080
0.057499997 -0.0033245794 0.0057432102 4278190080
-0.059771251 0.012889862 0.015 4278190080
0.04170277 0.027643241 0.015 4278190080
0.045410812 -0.012000589 0.015 4278190080
-0.058234449 0.0059427507 0.015 4278190080
0.011556931 0.032499999 0.0014050599 4278190080
0.034053244 -0.032499999 0.00261867 4278190080
-0.03380689 -0.032499999 0.0067513902 4278190080
0.048245408 0.02392666 0.015 4278190080
0.040800743 -0.0078620184 0.015 4278190080
0.041597448 -0.029327309 0.015 4278190080
0.0016025007 -0.015726488 0.015 4278190080
-0.011608861 -0.013400309 0.015 4278190080
-0.0025874786 -0.032499999 0.00177555 4278190080
0.025637522 0.0076575018 0 4278190080
-0.02965064 -0.025017388 0 4278190080
0.053733662 0.010803193 0 4278190080
-0.032220177 -0.0020304583 0.015 4278190080
0.0043324903 0.032499999 0.0034805699 4278190080
-0.05205033 -0.010274919 0.015 4278190080
-0.0091839507 0.032499999 0.00097523001 4278190080
-0.0052566119 0.010327112 0 4278190080
-0.0625 0.0059898496 0.01047774 4278190080
-0.059906971 0.01250089 0.015 4278190080
-0.06228343 -0.020356428 0 4278190080
0.0043494999 0.01835819 0.015 4278190080
-0.022941291 0.021736491 0 4278190080
-0.025658529 0.026575301 0.015 4278190080
0.017717376 -0.017999429 0.015 4278190080
-0.053947899 -0.026594438 0 4278190080
-0.020446289 0.017984092 0.015 4278190080
-0.047102571 0.0070902221 0 4278190080
-0.054165859 0.0079450794 0.015 4278190080
-0.012349591 -0.030202098 0 4278190080
0.036177978 0.027618151 0 4278190080
-0.029474061 0.0153604 0.015 4278190080
0.057499997 -0.02510852 0.01036289 4278190080
-0.051905379 0.028362591 0 4278190080
-0.04484646 -0.017475119 0.015 4278190080
-0.010601971 0.02195587 0.015 4278190080
-0.033761051 0.017331291 0 4278190080
-0.020670801 0.032123618 0 4278190080
0.027843587 0.017586261 0 4278190080
0.04234238 0.032499999 0.0096221799 4278190080
0.025352277 0.027461052 0.015 4278190080
0.05697646 -0.0183779 0 4278190080
-0.060676441 0.031299129 0.015 4278190080
-0.036533408 -0.012259819 0.015 4278190080
0.013655446 0.0052906498 0.015 4278190080
-0.059537221 0.030258961 0.015 4278190080
0.028844178 0.032499999 0.0073024798 4278190080
0.043394342 -0.032499999 0.01459047 4278190080
-0.04155894 -0.02999682 0 4278190080
0.037408359 -0.032499999 0.0031900499 4278190080
-0.054689359 -0.032499999 0.0091650896 4278190080
0.035074882 -0.019686498 0.015 4278190080
0.057499997 0.010362953 0.00288219 4278190080
0.035196558 0.032499999 0.0022428399 4278190080
0.01407969 -0.013165819 0.015 4278190080
0.036989667 -0.032499999 0.0081801899 4278190080
-0.033766568 -0.017042339 0.015 4278190080
0.02909179 -0.0055654887 0 4278190080
-0.030214049 0.032394402 0 4278190080
0.0066860691 0.011470251 0.015 4278190080
0.03432183 0.012273941 0 4278190080
-0.043691501 0.024438281 0 4278190080
0.029987387 -0.01524308 0.015 4278190080
-0.041112863 0.0018032715 0.015 4278190080
0.030504227 0.032499999 0.01485197 4278190080
0.02239053 -0.032499999 0.01490499 4278190080
-0.0625 0.011593282 0.00634313 4278190080
0.044930242 0.0090814717 0.015 4278190080
-0.0625 0.022497501 0.0065032002 4278190080
-0.0073293298 -0.032499999 0.00424778 4278190080
-0.0625 -0.010387288 0.0058046798 4278190080
-0.013794869 -0.022835169 0 4278190080
0.046879731 -0.032499999 0.01086873 4278190080
0.054120854 0.030817278 0 4278190080
-0.06057341 0.020995032 0 4278190080
-0.046727341 0.018098161 0.015 4278190080
-0.04322521 0.0064619109 0 4278190080
-0.042674821 -0.032499999 0.0053915498 4278190080
-0.032062311 0.00029538944 0 4278190080
-0.0625 -0.0074808095 0.01341908 4278190080
0.028739303 0.0030610897 0.015 4278190080
0.018248558 -0.025478598 0 4278190080
-0.0625 -0.016993929 0.0097354501 4278190080
-0.047826812 0.0062436312 0.015 4278190080
0.037050784 -0.0098223984 0.015 4278190080
-0.039758131 0.032499999 0.01041337 4278190080
-0.0625 0.0071885623 0.0060123201 4278190080
0.031901367 -0.021716248 0.015 4278190080
0.043797173 -0.019118669 0 4278190080
0.036272787 -0.017651368 0 4278190080
0.057499997 -0.012883319 0.0093338396 4278190080
0.055265538 0.016198512 0.015 4278190080
0.057499997 0.0081705004 0.01420855 4278190080
-0.013192572 -0.0029516388 0.015 4278190080
-0.02971112 -0.032499999 0.01102768 4278190080
0.057499997 0.016016129 0.01235467 4278190080
-0.029417329 0.032499999 0.0024743299 4278190080
-0.048198342 0.0039143823 0.015 4278190080
-0.043869279 -0.032499999 0.0085504698 4278190080
-0.030580349 -0.021651488 0 4278190080
-0.054643329 -0.030416209 0 4278190080
0.055687793 -0.032499999 0.00064588001 4278190080
-0.02131493 -0.032499999 0.01186289 4278190080
0.0016978011 0.02488504 0 4278190080
0.043838099 -0.0124189 0.015 4278190080
0.054478288 -0.032499999 0.0069814101 4278190080
0.045496061 -0.0021819491 0.015 4278190080
0.05226054 -0.0081177596 0.015 4278190080
0.0039186478 -0.032499999 0.00661194 4278190080
-0.0625 0.021209452 0.0051122 4278190080
-0.029288299 0.020470873 0.015 4278190080
0.0003587231 0.0039764121 0 4278190080
-0.047965121 0.015756473 0 4278190080
-0.015665401 0.030467749 0 4278190080
-0.016866609 -0.014133459 0 4278190080
0.056841552 -0.016331458 0.015 4278190080
-0.031170029 -0.0018634982 0 4278190080
0.051182181 0.032499999 0.01374806 4278190080
0.042801537 -0.0077985879 0.015 4278190080
0.052058771 0.032499999 0.0063947099 4278190080
-0.020183969 -0.031988069 0 4278190080
-0.021273348 0.032499999 0.0090119904 4278190080
-0.039199121 -0.0033128094 0.015 4278190080
-0.059760269 -0.021531248 0 4278190080
0.055435874 -0.032499999 0.01217168 4278190080
-0.01841002 -0.018258169 0 4278190080
0.036397748 0.0096623302 0 4278190080
-0.019417081 0.032499999 0.0092966398 4278190080
0.057499997 -0.00012344867 0.01243576 4278190080
-0.0086904503 -0.032499999 0.00967272 4278190080
0.004492417 -0.0043267086 0.015 4278190080
-0.0625 0.0087735429 0.00317698 4278190080
-0.055522151 -0.020631839 0 4278190080
-0.061207999 0.032499999 0.00089602999 4278190080
0.01043056 -0.0061755292 0.015 4278190080
-0.0089285001 0.011656512 0.015 4278190080
0.023177236 0.024907339 0 4278190080
-0.03848733 0.0025411397 0.015 4278190080
0.050666913 0.024412893 0.015 4278190080
0.05210156 0.0014538914 0 4278190080
-0.05237779 -0.010003628 0.015 4278190080
-0.0625 0.011659101 0.00123282 4278190080
0.036980607 -0.0076849982 0.015 4278190080
-0.0625 0.017980792 0.0096807303 4278190080
0.050602227 0.032499999 0.0081344498 4278190080
0.036913589 0.032499999 0.0086751701 4278190080
0.022841893 -0.02040514 0 4278190080
-0.01109983 0.0083330311 0.015 4278190080
0.04977496 -0.017793559 0 4278190080
0.036338933 -0.0092803594 0.015 4278190080
0.033833928 0.0034922622 0.015 4278190080
-0.033757851 0.021330401 0 4278190080
0.017595991 0.013568141 0 4278190080
-0.013709228 -0.016017439 0 4278190080
0.026523776 -0.017023098 0 4278190080
-0.040232569 -0.021983309 0.015 4278190080
0.04467795 -0.025581319 0 4278190080
0.0030409619 -0.011512659 0 4278190080
0.057499997 0.019922391 0.0046505998 4278190080
-0.016346171 0.02830404 0.015 4278190080
-0.0625 0.019966412 0.0098428996 4278190080
-0.049896929 -0.025156168 0.015 4278190080
-0.031169511 0.01579443 0.015 4278190080
0.054460444 0.032499999 0.01402807 4278190080
-0.01115942 0.010145642 0.015 4278190080
0.018355243 0.0025197603 0.015 4278190080
-0.022213109 0.01622029 0.015 4278190080
0.049536921 0.0024997294 0 4278190080
0.006748803 0.0268455 0.015 4278190080
-0.019835401 -0.024105489 0.015 4278190080
-0.052026089 -0.019299608 0 4278190080
-0.010489639 -0.030846579 0.015 4278190080
0.057499997 -0.021145679 0.00604307 4278190080
-0.026127871 -0.024314499 0.015 4278190080
0.04323487 0.0063502304 0.015 4278190080
0.023915283 -0.032499999 0.01363324 4278190080
0.0059135705 0.032499999 0.00135665 4278190080
0.057499997 0.015843373 0.01420673 4278190080
-0.060170829 -0.011578139 0.015 4278190080
-0.053738531 -0.032499999 0.0047056498 4278190080
-0.06083918 0.025152173 0.015 4278190080
0.049391463 -0.032499999 0.00171322 4278190080
0.032778107 0.023073312 0 4278190080
-0.0042237192 -0.032499999 0.0137747 4278190080
0.019549072 0.030923001 0.015 4278190080
-0.03740897 0.022535153 0 4278190080
-0.060768429 0.026995622 0.015 4278190080
0.038345963 -0.032283068 0.015 4278190080
-0.0077013113 -0.0016808696 0.015 4278190080
-0.028299902 0.032499999 0.0073846201 4278190080
-0.062280059 -0.0066987593 0.015 4278190080
-0.0067237318 -0.0059566982 0.015 4278190080
-0.019282311 0.032499999 0.0043714601 4278190080
-0.034492731 0.0029187314 0 4278190080
-0.058713861 -0.031360339 0 4278190080
0.034953952 0.032499999 0.01166437 4278190080
0.025263444 -0.029344648 0.015 4278190080
0.025738597 0.014856912 0.015 4278190080
-0.0057528391 -0.013293479 0 4278190080
-0.015126701 0.023896601 0 4278190080
-0.0074402317 0.029615682 0.015 4278190080
-0.031766471 0.032499999 0.01065567 4278190080
0.024260573 -0.028224349 0.015 4278190080
0.011496812 -0.022993429 0.015 4278190080
-0.019515991 0.01789178 0.015 4278190080
0.043614499 -0.024179889 0.015 4278190080
-0.044388071 0.025939289 0.015 4278190080
-0.054587312 -0.015919399 0.015 4278190080
0.053328902 -0.028764218 0 4278190080
-0.03318337 0.031500861 0 4278190080
0.034994669 -0.019002069 0.015 4278190080
-0.01482987 -0.025197839 0.015 4278190080
-0.031253569 0.032499999 0.01432519 4278190080
0.01857657 -0.0080435984 0.015 4278190080
-0.053937159 -0.018551998 0.015 4278190080
-0.043398872 0.032499999 0.0074995901 4278190080
-0.011570811 -0.017207827 0 4278190080
-0.05475131 -0.0057718586 0 4278190080
-0.032368731 -0.030237768 0.015 4278190080
0.05124604 0.007717602 0 4278190080
-0.056559049 0.028237011 0.015 4278190080
0.052901223 -0.010641638 0.015 4278190080
-0.045989059 0.02461458 0 4278190080
0.011024229 0.018252961 0.015 4278190080
-0.01170782 -0.0084148683 0 4278190080
0.01840084 0.032499999 0.00104844 4278190080
-0.0625 -0.029447429 0.01414052 4278190080
0.018726937 0.024884172 0.015 4278190080
0.010350488 -0.032499999 0.0036734701 4278190080
0.032550462 -0.00049873814 0.015 4278190080
0.051431149 -0.021765839 0 4278190080
0.013119861 -0.02835241 0 4278190080
0.048892632 0.025613893 0.015 4278190080
0.026159316 0.010034341 0.015 4278190080
-0.016644929 0.00052851066 0 4278190080
-0.044036619 -0.010721849 0.015 4278190080
-0.05033746 0.032499999 0.0026374201 4278190080
0.05006174 -0.024721049 0 4278190080
0.017407902 0.0011822395 0.015 4278190080
-0.039764911 -0.032499999 0.00442506 4278190080
0.021192357 0.030372284 0 4278190080
-0.015506439 -0.00024494901 0.015 4278190080
0.010264978 -0.03221602 0.015 4278190080
0.042847008 0.031396843 0 4278190080
-0.0625 0.0095766522 0.0090158796 4278190080
0.047626317 -0.021150228 0.015 4278190080
-0.0090321004 0.012727883 0 4278190080
-0.056252979 -0.026543399 0 4278190080
0.014322929 -0.011928009 0 4278190080
-0.037060671 -0.032499999 0.0025756001 4278190080
0.035052143 -0.01701181 0 4278190080
0.041700408 0.017552532 0.015 4278190080
-0.041106619 -0.014133979 0 4278190080
-0.0625 0.0076648928 0.0084166098 4278190080
0.0087799728 0.018617872 0.015 4278190080
0.028292559 -0.0055703986 0 4278190080
-0.0625 -0.0036138594 0.0036569401 4278190080
0.043786772 0.032499999 0.01321431 4278190080
0.0085521191 -0.032499999 0.00067188998 4278190080
0.026229046 -0.032499999 0.0074699698 4278190080
0.037863821 0.022925921 0 4278190080
-0.027157929 -0.032499999 0.0056874999 4278190080
0.01612778 -0.0031853579 0.015 4278190080
-0.0625 0.015281443 0.0098543996 4278190080
0.046101332 0.032033801 0.015 4278190080
0.032841191 0.026351471 0.015 4278190080
0.016332299 0.032499999 0.01484696 4278190080
-0.032009862 0.032499999 0.0109999 4278190080
0.016906299 -0.0024133697 0 4278190080
-0.00022336841 0.02753764 0.015 4278190080
0.057499997 -0.024532199 0.0049240198 4278190080
0.0035776123 0.0073840618 0 4278190080
0.055234373 0.0069236308 0 4278190080
-0.02046461 0.032499999 0.0010393501 4278190080
-0.049905319 -0.025808109 0.015 4278190080
-0.055281971 -0.017981369 0.015 4278190080
-0.01875988 -0.032499999 0.00184092 4278190080
-0.058345929 -0.022557149 0.015 4278190080
0.01630044 -0.025668278 0 4278190080
0.022993751 -0.025288459 0 4278190080
-0.010338768 -0.029926289 0.015 4278190080
-0.015432939 -0.025414949 0.015 4278190080
-0.052768361 0.032499999 0.0070002698 4278190080
0.012954339 0.01774063 0.015 4278190080
0.048210867 0.012025863 0.015 4278190080
0.04721541 -0.023019629 0 4278190080
-0.030219261 0.022485491 0 4278190080
0.015740573 0.00068990141 0 4278190080
-0.028840352 0.0088064708 0.015 4278190080
0.05616989 0.022407699 0 4278190080
0.035989188 0.0036161207 0 4278190080
-0.050299171 0.017303582 0 4278190080
-0.02800836 -0.0073930882 0.015 4278190080
-0.0625 -0.009494178 0.01317926 4278190080
0.025111862 0.015150912 0 4278190080
-0.03799767 0.031973891 0 4278190080
0.033454061 -0.031527448 0 4278190080
-0.0064603984 0.010741573 0 4278190080
0.048000507 0.032499999 0.0081115998 4278190080
-0.019099459 0.032499999 0.00308201 4278190080
-0.013163172 -0.01101514 0 4278190080
-0.013491061 -0.0034917891 0 4278190080
0.0034401789 -0.0057949685 0 4278190080
-0.059107751 0.012489293 0 4278190080
-0.015497699 -0.022627868 0.015 4278190080
-0.060983211 -0.014554089 0 4278190080
0.021391787 -0.019959439 0 4278190080
-0.0025339201 0.032499999 0.0039989599 4278190080
0.022709347 0.01543805 0 4278190080
0.042415559 -0.027745878 0.015 4278190080
-0.0041313395 -0.02126601 0.015 4278190080
0.054444052 -0.015643129 0.015 4278190080
-0.03994295 0.01849075 0 4278190080
0.039007887 -0.0039707683 0.015 4278190080
0.0073354617 0.005998902 0 4278190080
0.0023878589 -0.03163711 0 4278190080
-0.04270057 -0.0066950582 0.015 4278190080
0.031852409 0.0034718513 0 4278190080
0.0024978667 0.031117283 0.015 4278190080
-0.013825189 -0.028785668 0.015 4278190080
0.0077437237 0.032499999 0.0086705601 4278190080
-0.012218501 -0.032499999 0.0046276702 4278190080
0.044738807 -0.010118328 0.015 4278190080
0.019529641 -0.03065013 0.015 4278190080
-0.0049207993 0.024007712 0.015 4278190080
-0.03003715 -0.032499999 0.0071552699 4278190080
-0.035614811 -0.032499999 0.00928012 4278190080
0.057499997 0.030158922 0.0035699499 4278190080
-0.05974704 -0.029172909 0 4278190080
0.034869872 0.013080381 0.015 4278190080
-0.028679699 -0.016872719 0.015 4278190080
-0.053735349 -0.010128779 0.015 4278190080
0.03754434 0.02984523 0.015 4278190080
0.034291707 0.01842574 0 4278190080
-0.04921446 -0.00062086806 0 4278190080
-0.03879093 -0.0039522387 0 4278190080
-0.034147263 0.013062522 0 4278190080
0.039410703 -0.032300867 0.015 4278190080
0.055678658 0.015064482 0 4278190080
-0.048959289 -0.032499999 0.01320849 4278190080
0.018851623 0.029339712 0.015 4278190080
0.049728222 0.0047632903 0 4278190080
0.057499997 0.028237302 0.0086011803 4278190080
0.015052557 0.011272613 0.015 4278190080
-0.029185239 0.013188742 0 4278190080
-0.044644699 -0.032499999 0.0090671303 4278190080
0.041030638 -0.015015189 0 4278190080
0.0288326 0.0071925595 0.015 4278190080
-0.041725229 -0.032499999 0.0076346602 4278190080
-0.0625 0.029977322 0.00452284 4278190080
0.011227302 -0.025759978 0.015 4278190080
0.01999414 0.032499999 0.0097603202 4278190080
-0.0625 0.015865851 0.0027486801 4278190080
-0.0625 -0.020603128 0.0074884002 4278190080
-0.0034321398 0.032499999 0.0042053401 4278190080
-0.0625 0.021455862 0.0052161198 4278190080
0.043890283 0.03112676 0 4278190080
0.012525789 -0.032348718 0 4278190080
0.015140273 0.027863029 0.015 4278190080
0.01580663 -0.016054209 0.015 4278190080
0.045126542 -0.032499999 0.01459899 4278190080
-0.038153611 0.032499999 0.0049487399 4278190080
0.056910262 -0.0017215479 0 4278190080
0.02492743 -0.032499999 0.01248101 4278190080
-0.0077929497 0.017684821 0.015 4278190080
-0.0625 0.027755693 0.0065465602 4278190080
0.03087116 -0.01504745 0 4278190080
0.030249037 0.01232313 0 4278190080
-0.0061938986 -0.01801835 0.015 4278190080
-0.0625 0.030091159 0.01054902 4278190080
0.046938941 -0.029454069 0 4278190080
-0.045655891 -0.00068049878 0.015 4278190080
-0.04962023 0.0040896125 0.015 4278190080
-0.018972918 -0.015602089 0 4278190080
0.024203941 -0.031208279 0.015 4278190080
-0.025704399 -0.023613788 0 4278190080
0.0043937117 -0.027118508 0.015 4278190080
-0.01105918 -0.032499999 0.01090905 4278190080
0.019114397 0.021127921 0.015 4278190080
0.051125713 0.010897443 0.015 4278190080
-0.0010131411 -0.004473649 0 4278190080
-0.0079556406 0.032499999 0.00426951 4278190080
-0.0625 0.020793039 0.0034632001 4278190080
-0.0070029199 0.0054895319 0 4278190080
0.026091069 -0.02966572 0.015 4278190080
-0.003657721 -0.031132329 0.015 4278190080
0.037060007 -0.032499999 0.00199988 4278190080
-0.027590621 0.008088652 0 4278190080
-0.02734438 -0.015268639 0 4278190080
-0.030971199 0.032499999 0.00091807998 4278190080
-0.059403099 -0.024932839 0.015 4278190080
0.057499997 0.0051781796 0.01328663 4278190080
0.055097394 0.021362081 0 4278190080
-0.056278639 -0.021352969 0 4278190080
-0.024895251 0.01380036 0.015 4278190080
-0.036956988 -0.032499999 0.00481176 4278190080
0.016790867 -0.021205828 0.015 4278190080
-0.052283119 -0.012791879 0.015 4278190080
-0.06200584 -0.017677449 0 4278190080
0.040059023 0.0260421 0.015 4278190080
0.0090285018 0.0082399808 0 4278190080
-0.033313699 0.032499999 0.01359422 4278190080
-0.055093501 -0.030121488 0 4278190080
-0.049972881 0.016663581 0.015 4278190080
-0.03283599 0.032499999 0.01275646 4278190080
-0.02495816 0.0016024411 0.015 4278190080
0.021940388 -0.0087006483 0.015 4278190080
0.04678271 0.032499999 0.01270318 4278190080
-0.0088549592 -0.032499999 0.01325976 4278190080
-0.00014793128 -0.020332169 0.015 4278190080
0.039191969 -0.0092281289 0 4278190080
-0.038437933 0.01478206 0 4278190080
0.012393653 -0.0090547297 0 4278190080
-0.025298931 -0.032499999 0.01210985 4278190080
-0.02519016 0.0073068328 0 4278190080
-0.02516292 -0.032337219 0.015 4278190080
0.05151052 0.031957693 0 4278190080
-0.024766151 0.011193562 0 4278190080
0.052638389 -0.019775718 0.015 4278190080
0.040107086 -0.030411858 0.015 4278190080
0.045819469 -0.032499999 0.0067211101 4278190080
-0.0162182 0.013776273 0.015 4278190080
-0.0625 0.0070543028 0.0083122104 4278190080
-0.011912052 0.01392018 0 4278190080
0.035093568 0.031868733 0.015 4278190080
-0.011736762 0.0021138601 0 4278190080
-0.031170141 0.015340261 0.015 4278190080
0.057499997 -0.028315509 0.01223076 4278190080
0.057499997 -0.021286119 0.01225097 4278190080
0.030720338 0.027749561 0.015 4278190080
0.045683719 0.0026069209 0.015 4278190080
-0.022146162 0.016607422 0.015 4278190080
-0.0058343895 -0.027917739 0.015 4278190080
-0.03450771 -0.0178716 0.015 4278190080
0.040185377 -0.0020096097 0.015 4278190080
0.035342738 -0.032499999 0.01391954 4278190080
-0.0101116 0.0011425726 0 4278190080
0.05481483 -0.02768356 0 4278190080
-0.062022071 -0.011904949 0.015 4278190080
-0.060377002 0.016271211 0 4278190080
0.016451389 0.032499999 0.00752621 4278190080
0.041493781 -0.018825918 0 4278190080
-0.03782462 0.030754782 0.015 4278190080
-0.055659819 -0.032499999 0.01181447 4278190080
0.026510693 -0.030991429 0 4278190080
-0.0625 -0.0089311786 0.01308722 4278190080
-0.056526098 -0.032499999 0.00139179 4278190080
-0.04320588 0.025895622 0.015 4278190080
0.013053618 -0.032499999 0.0093631204 4278190080
-0.046839148 -0.019069979 0 4278190080
-0.042400412 -0.029590059 0 4278190080
0.054264054 0.032499999 0.0023441999 4278190080
-0.034996562 -0.010193279 0 4278190080
-0.044217423 0.00696747 0 4278190080
0.021476783 0.027483061 0.015 4278190080
0.039513327 0.01869572 0 4278190080
0.039896414 0.032142319 0.015 4278190080
0.019751668 0.032010049 0 4278190080
-0.0026131198 -0.029868519 0 4278190080
-0.03507391 0.032499999 0.0064214901 4278190080
0.03272672 -0.012121208 0.015 4278190080
-0.0026251785 -0.032499999 0.0096756797 4278190080
0.0091502815 0.032499999 0.01217781 4278190080
-0.041925721 0.022979513 0.015 4278190080
-0.023712981 0.0072337426 0 4278190080
-0.030906741 -0.030267209 0.015 4278190080
-0.036305241 -0.02852837 0.015 4278190080
0.048756681 -0.0092252586 0 4278190080
0.050767727 -0.022693349 0 4278190080
-0.015878331 0.027496669 0.015 4278190080
0.023308218 0.0094656311 0.015 4278190080
0.033176199 0.023618352 0.015 4278190080
-0.057990409 0.032499999 0.01359999 4278190080
0.033759288 0.032499999 0.0041600098 4278190080
0.022588417 -0.02220184 0.015 4278190080
0.051995553 0.0232738 0.015 4278190080
0.03377071 -0.0082822293 0.015 4278190080
0.046180978 0.032499999 0.00060117 4278190080
-0.006895721 -0.023690509 0 4278190080
0.029706091 0.014311261 0.015 4278190080
0.0088910237 -0.032499999 0.0041954699 4278190080
0.020316727 0.032499999 0.0105021 4278190080
0.053225949 0.032338493 0.015 4278190080
0.057499997 -0.006805459 0.01458737 4278190080
0.057499997 -0.017696369 0.0025883501 4278190080
-0.022022501 -0.013042619 0.015 4278190080
-0.039603561 -0.021819199 0 4278190080
0.057499997 0.0017942227 0.0109487 4278190080
-0.014945559 -0.0051272586 0 4278190080
-0.016243968 -0.0084605981 0 4278190080
0.056126848 -0.029172478 0 4278190080
0.057499997 0.0042071305 0.01115245 4278190080
-0.0016738996 0.0055901818 0.015 4278190080
0.0062841028 0.028261371 0.015 4278190080
-0.052088998 0.032499999 0.00250699 4278190080
0.040938146 0.019193832 0.015 4278190080
-0.02593293 0.032499999 0.01179604 4278190080
0.026731431 -0.026752658 0 4278190080
0.057499997 0.02926584 0.0028571 4278190080
0.040372267 0.009390831 0 4278190080
-0.0015645586 -0.0038994495 0.015 4278190080
0.01115524 0.032499999 0.0109475 4278190080
0.054267786 0.032038644 0 4278190080
0.040353619 -0.02288945 0 4278190080
-0.030375361 -0.013382059 0 4278190080
-0.01473761 -0.0010489784 0.015 4278190080
-0.059328672 -0.032499999 0.0012961701 4278190080
0.046151981 -0.032499999 0.0052654198 4278190080
0.0083172768 0.0099841021 0 4278190080
-0.017827101 0.0050226524 0.015 4278190080
0.031799681 0.01542969 0 4278190080
0.029045552 0.028704412 0.015 4278190080
-0.041855782 0.00919443 0 4278190080
0.045792744 -0.0041317884 0.015 4278190080
-0.0625 -0.0096419379 0.0025038 4278190080
0.039529324 0.011159092 0.015 4278190080
0.049899057 0.0094751008 0.015 4278190080
-0.023388959 0.015035242 0 4278190080
0.025014192 -0.026773628 0 4278190080
0.020110726 0.023735911 0.015 4278190080
-0.04200663 -0.015007738 0.015 4278190080
-0.044133373 -0.031336848 0.015 4278190080
-0.0031048395 0.031066261 0.015 4278190080
0.051131517 -0.032499999 0.00140153 4278190080
-0.020179641 -0.032499999 0.00599004 4278190080
0.022619218 0.010495301 0.015 4278190080
-0.061985709 -0.017448969 0.015 4278190080
-0.024069332 -0.01272448 0 4278190080
-0.02157836 -0.0052720495 0 4278190080
-0.020098072 -0.032499999 0.01059764 4278190080
-0.0625 -0.008519588 0.00163332 4278190080
-0.046761058 0.032499999 0.01433458 4278190080
0.054022908 0.032499999 0.0089047803 4278190080
0.017039277 -0.015088979 0 4278190080
-0.039526708 -0.018925698 0.015 4278190080
-0.0625 -0.0097209886 0.01473531 4278190080
-0.0625 0.024409439 0.01160878 4278190080
0.0075302869 -0.022066299 0.015 4278190080
-0.055016931 0.016087171 0.015 4278190080
0.029523991 0.0026681125 0.015 4278190080
0.030200757 -0.021580998 0 4278190080
0.034414031 0.032499999 0.0063259802 4278190080
-0.055770431 -0.0073540397 0 4278190080
0.021283172 0.019615993 0.015 4278190080
-0.032986388 -0.026761848 0 4278190080
0.0058062822 0.031488433 0.015 4278190080
0.05198656 0.028732151 0 4278190080
0.033335507 0.0088483617 0 4278190080
-0.0077295192 0.032499999 0.0048159398 4278190080
-0.038592182 -0.029967859 0.015 4278190080
0.048461661 0.032499999 0.0080410503 4278190080
-0.0625 -0.0018066783 0.0090685198 4278190080
-0.035690911 0.032499999 0.0066515701 4278190080
-0.022155799 0.0087539107 0 4278190080
-0.051022701 -0.02843814 0.015 4278190080
-0.015742671 -0.032499999 0.00044912001 4278190080
-0.02238835 -0.02055062 0.015 4278190080
0.031943798 0.018707301 0.015 4278190080
-0.061983012 0.032499999 0.0089413403 4278190080
0.055843592 -0.032499999 0.01014008 4278190080
-0.042563118 -0.0029201489 0 4278190080
-0.0030440688 -0.001932038 0.015 4278190080
0.04490383 0.032499999 0.01238907 4278190080
-0.0060144104 -0.0018867683 0.015 4278190080
0.038417123 0.0094817728 0 4278190080
-0.026285749 0.0173399 0.015 4278190080
-0.0047463402 -0.020008748 0 4278190080
-0.061526731 0.031174332 0.015 4278190080
0.024209909 -0.02051311 0.015 4278190080
-0.060793828 -0.023231179 0.015 4278190080
-0.05562035 -0.024680909 0.015 4278190080
-0.016914811 -0.0005486086 0 4278190080
0.038088068 0.010179322 0.015 4278190080
-0.0625 -0.026868928 0.0089869499 4278190080
0.032098688 0.00014631078 0.015 4278190080
-0.0625 -0.01375578 0.01392946 4278190080
-0.052819509 0.021542642 0.015 4278190080
-0.0018177591 0.0030200928 0.015 4278190080
-0.023065861 0.027334221 0.015 4278190080
-0.028453741 0.0039906912 0.015 4278190080
0.039424673 -0.029032869 0.015 4278190080
0.012569368 0.011780672 0.015 4278190080
-0.02110526 0.028203942 0.015 4278190080
-0.0625 0.0286282 0.00554315 4278190080
0.030691482 -0.032499999 0.0112822 4278190080
0.020428993 -0.022369958 0.015 4278190080
0.040996231 0.0073444098 0 4278190080
0.035467647 -0.008337548 0.015 4278190080
-0.014145341 0.032499999 0.00478432 4278190080
0.042844959 -0.032499999 0.0086938199 4278190080
-0.0057941005 0.0027858317 0 4278190080
-0.0625 -0.026766649 0.01328596 4278190080
-7.5951219e-05 -0.010150168 0.015 4278190080
-0.047098409 0.0043795928 0 4278190080
-0.009964589 -0.0023725983 0 4278190080
-0.034564599 0.002984602 0 4278190080
0.021449126 0.01162238 0 4278190080
0.035402209 -0.028779298 0 4278190080
0.039989688 -0.032499999 0.01332072 4278190080
-0.0033437982 0.031846829 0 4278190080
0.0035724714 0.010768421 0 4278190080
0.031037912 0.0031452812 0.015 4278190080
-0.018146422 -0.0057186484 0 4278190080
-0.061248928 -0.0020805392 0 4278190080
0.017210059 0.012607761 0.015 4278190080
0.024677441 0.023043603 0.015 4278190080
-0.0625 -0.016123548 0.0087434603 4278190080
-0.01343574 0.02152811 0.015 4278190080
0.041152723 0.0019691512 0 4278190080
-0.059306089 -0.011843059 0 4278190080
-0.047365822 0.032499999 0.00090068002 4278190080
0.02070006 -0.026797799 0 4278190080
0.057499997 -0.0071706194 0.00340174 4278190080
-0.04620764 0.032499999 0.0029662801 4278190080
-0.058389489 0.0080362894 0.015 4278190080
-0.0625 -0.028284829 0.01438644 4278190080
0.026055947 -0.0063496493 0.015 4278190080
0.013833597 0.02408424 0 4278190080
-0.0625 -0.010618338 0.0090304697 4278190080
0.037268206 0.0051301494 0 4278190080
0.03372369 0.02181036 0 4278190080
-0.0063770711 -0.0091095082 0 4278190080
0.0267305 0.018279392 0 4278190080
0.01889839 0.0074228011 0.015 4278190080
0.032106139 0.01865587 0.015 4278190080
0.057499997 0.015434559 6.5170003e-05 4278190080
-0.018841378 -0.0048489794 0 4278190080
0.025232658 0.0091059022 0 4278190080
-0.0086234808 -8.2779676e-05 0.015 4278190080
-0.036267102 0.032499999 0.00285516 4278190080
-0.03575686 0.0065373927 0 4278190080
-0.0625 -0.0059670582 0.00733103 4278190080
-0.00080521032 -0.0098998584 0 4278190080
0.004580453 0.032499999 0.0076773399 4278190080
0.021430612 0.0068750903 0.015 4278190080
-0.019610081 -0.0082586985 0.015 4278190080
-0.0300446 0.032499999 0.00532733 4278190080
0.0058916137 0.032499999 0.0078406101 4278190080
0.042820193 -0.017741878 0.015 4278190080
-0.03360137 -0.019007958 0.015 4278190080
-0.0042700209 0.0300152 0 4278190080
-0.011832461 0.025562569 0 4278190080
-0.0077922307 0.02781539 0.015 4278190080
0.022839569 0.02662934 0 4278190080
0.014583036 0.012653351 0 4278190080
-0.0015878119 -0.029263228 0.015 4278190080
-0.045283251 0.024398573 0 4278190080
0.057499997 0.026257463 0.01407315 4278190080
0.039589241 -0.031307708 0.015 4278190080
-0.0031600408 -0.0042198692 0.015 4278190080
0.028655089 -0.0037483592 0 4278190080
-0.025531501 0.032499999 0.0070715402 4278190080
0.0063135773 -0.021091219 0.015 4278190080
0.048451021 0.0071227029 0.015 4278190080
-0.0027328618 -0.017677039 0.015 4278190080
