# .PCD v0.7 - Point Cloud Data file format
VERSION 0.7
FIELDS x y z rgb
SIZE 4 4 4 4
TYPE F F F U
COUNT 1 1 1 1
WIDTH 968
HEIGHT 1
VIEWPOINT 0 0 0 1 0 0 0
POINTS 968
DATA ascii
-0.056100011 -0.033046782 0.033228226 4290219306
-0.055521846 0.017113771 0.029809017 4289956116
-0.056632698 0.013893412 0.029953988 4289627154
-0.057851672 0.010548647 0.030002208 4289100305
-0.057565153 -0.0307495 0.029447261 4289429523
-0.056064606 -0.033679947 0.029619038 4289626903
-0.055000007 -0.03670039 0.028408926 4289363482
-0.055519998 0.017454026 0.02615064 4288311303
-0.057190478 0.013919123 0.025869463 4288113684
-0.058000088 0.010833504 0.026090881 4288113690
-0.057959855 -0.030624218 0.025924491 4288311563
-0.057222128 -0.033904098 0.025869926 4288574478
-0.055823565 -0.03686741 0.02579199 4288706067
-0.055000007 0.016642369 0.023375314 4288640802
-0.056263089 0.013795007 0.022260159 4283646499
-0.057777584 0.010359941 0.021769976 4281807657
-0.058000028 0.0077120624 0.02054107 4280233015
-0.058000028 -0.031528875 0.022329411 4287391762
-0.057972014 -0.033806719 0.022106048 4287654162
-0.056444526 -0.036821313 0.022111353 4287851283
-0.055000007 0.012814242 0.019411346 4280297519
-0.055764794 0.0097615849 0.018583294 4281218870
-0.056928456 0.0060890019 0.018032365 4283585071
-0.057933331 0.0034627058 0.017577942 4283519020
-0.057740629 -0.030609965 0.017618662 4281741345
-0.056589723 -0.033913478 0.018175796 4286011676
-0.055500031 -0.03679058 0.018814228 4287391508
-0.055000007 0.0081702806 0.015510298 4287527970
-0.055619061 0.005458869 0.014407372 4284236815
-0.05729723 0.0022336617 0.013783034 4286934563
-0.058000028 -0.0015955009 0.012916245 4284763927
-0.058000028 -0.0044615455 0.01240413 4285027867
-0.058000028 -0.019444447 0.012404131 4284238100
-0.057833374 -0.022428229 0.012871357 4284962336
-0.057645082 -0.026302554 0.013550512 4284700196
-0.056333363 -0.030120395 0.014036525 4281479201
-0.055000007 -0.03287226 0.015006939 4280296228
-0.055000007 0.0044049099 0.01142049 4281345307
-0.055750012 0.0015194863 0.01064551 4286606114
-0.056638896 -0.0020635687 0.010188622 4282462482
-0.057609618 -0.0059467256 0.0098623931 4283450398
-0.058000028 -0.0089095943 0.0087268585 4283056932
-0.057846189 -0.014585014 0.0087416936 4282004247
-0.056783676 -0.018024389 0.010064358 4284107284
-0.055842221 -0.022059795 0.010108821 4284172307
-0.056166649 -0.025897585 0.010180954 4283974672
-0.055297136 -0.029820994 0.010124291 4282069270
-0.055000007 -0.032621235 0.0085890852 4279640878
-0.05520004 -0.0029852055 0.0073977876 4280429100
-0.055810809 -0.0063158721 0.006193419 4279708473
-0.057540417 -0.010060538 0.0057776766 4279577402
-0.056942821 -0.013881497 0.0058496827 4280694071
-0.055333376 -0.016951758 0.0068663061 4282729260
-0.055080175 -0.026637495 0.0065018125 4281873696
-0.055469394 -0.030053727 0.0060843173 4280428581
-0.055058956 -0.033315197 0.0054076836 4279378736
-0.055000007 -0.0075187646 0.0035554748 4279118915
-0.05557698 -0.010098998 0.0027012788 4279053378
-0.055299997 -0.013264596 0.0029977746 4279053378
-0.055000007 -0.027286962 0.0029262751 4279445306
-0.055518568 -0.030117206 0.0026619453 4279313975
-0.055083454 -0.033447459 0.0029286556 4279248181
-0.053555489 -0.015048448 0.073250219 4287127592
-0.052285731 -0.01684124 0.074099086 4287199842
-0.050999999 0.0041572973 0.068382859 4288248641
-0.053000033 0.0033364892 0.068531424 4288379445
-0.053499997 -0.015088756 0.070242196 4287390244
-0.052200019 -0.01708369 0.069990613 4286802764
-0.051333368 0.004651878 0.065347329 4289429549
-0.053200066 0.0030662976 0.066084683 4289034793
-0.053499997 -0.018025052 0.067858532 4287789654
-0.053199947 -0.022147711 0.064979702 4289761100
-0.052000046 -0.024168417 0.064188153 4289367648
-0.051857114 0.0091688763 0.060990848 4291536189
-0.052571416 0.0061455294 0.062219702 4291272760
-0.05400002 0.0034000315 0.063089803 4289956906
-0.053565145 -0.022681773 0.061875112 4290812997
-0.052263141 -0.025035307 0.062039062 4288446540
-0.052000046 0.012420069 0.057230819 4287788340
-0.052871108 0.010471459 0.058214199 4289430314
-0.05400002 -0.02520369 0.059623182 4286604610
-0.052000046 0.012420069 0.055965856 4287657018
-0.052774191 0.0095108338 0.053939924 4288114466
-0.053583264 0.0066766627 0.052765731 4288377119
-0.051359892 0.0089797489 0.050053719 4288311330
-0.053233325 0.0061432347 0.050019555 4288245536
-0.053058803 -0.027051426 0.049437322 4286541650
-0.051500022 -0.028959297 0.049982626 4286084457
-0.050999999 0.017111812 0.044623673 4290417724
-0.051200032 0.013708839 0.044868596 4290878258
-0.052000046 0.0097357873 0.045991242 4291009068
-0.053454518 0.0069410317 0.046756353 4289692191
-0.052800059 -0.02634839 0.046063118 4287983922
-0.050999999 -0.028071009 0.046524405 4287459643
-0.051666677 0.020820403 0.040376201 4290680888
-0.052444577 0.017624209 0.041754425 4290680632
-0.052439272 0.0140558 0.042082228 4290811953
-0.05341661 0.010652915 0.042786218 4291075114
-0.053423107 -0.02669771 0.042482644 4289035565
-0.051724017 -0.02972728 0.041713946 4289364791
-0.051333368 -0.033084683 0.040177003 4289561914
-0.051500022 0.021341238 0.037638821 4290878518
-0.053119183 0.018141268 0.037905701 4290944053
-0.053857148 0.014889287 0.038558125 4291009585
-0.05288893 -0.030788958 0.039070442 4289890613
-0.052500069 -0.032847397 0.038286626 4289890871
-0.051499963 0.02155179 0.034157392 4290812461
-0.053333282 0.01891841 0.034217574 4290812459
-0.05400002 -0.03494782 0.032835621 4289956138
-0.051400065 -0.037496984 0.032893557 4289627698
-0.052119195 0.021572221 0.030032096 4290087962
-0.053888857 0.018867852 0.03017642 4290153752
-0.05399996 -0.035325013 0.030881703 4289889826
-0.052516162 -0.038038917 0.030066315 4289495336
-0.050999999 -0.040456779 0.029164359 4289101099
-0.052000046 0.021470319 0.026216915 4289034764
-0.053307712 0.019067541 0.025204796 4288508683
-0.052894771 -0.039120056 0.025997233 4288706071
-0.050999999 -0.040709548 0.025933109 4288640541
-0.051333368 0.020809229 0.023502251 4288442897
-0.05248493 0.018040985 0.022096958 4285616925
-0.053666711 0.015435128 0.020755269 4281017892
-0.052777767 -0.039202422 0.022124792 4287917075
-0.050999999 -0.040709555 0.022448428 4287983124
-0.051500022 0.01662663 0.019027615 4283056681
-0.052411795 0.014090443 0.017961321 4283583275
-0.05339998 0.010725625 0.016759563 4282795575
-0.05400002 -0.035262145 0.016132787 4284763172
-0.052666664 -0.038347788 0.017899044 4287391768
-0.050999999 -0.040077627 0.018646959 4287457302
-0.051428616 0.013024574 0.015120523 4283515156
-0.052270472 0.0097754635 0.01398452 4286606636
-0.053466618 0.006659653 0.01326902 4282986504
-0.053035736 -0.034107327 0.013622951 4280361505
-0.051473677 -0.037021525 0.014215954 4283842847
-0.051312506 0.0090718959 0.010890388 4287657769
-0.052111208 0.0060846061 0.0099188825 4282133782
-0.05399996 0.0026815683 0.0091995345 4286475822
-0.052794099 -0.033920422 0.010217761 4279640618
-0.051166713 -0.036580063 0.0091465916 4279509805
-0.051414669 0.0057701766 0.0061088186 4283449882
-0.052571654 0.0020490587 0.0060122805 4287132457
-0.053282082 -0.0017046519 0.0056897635 4281084449
-0.053714335 -0.0049293861 0.0046895649 4279380543
-0.05400002 -0.015773896 0.0041571707 4279511868
-0.053310394 -0.018467441 0.0056390027 4281152299
-0.052889109 -0.022011671 0.0061038453 4281808165
-0.053571403 -0.025041878 0.0053464677 4280494375
-0.053714275 -0.034760311 0.0064020855 4279313200
-0.052034557 -0.037412047 0.0060008671 4279378736
-0.051166415 0.0058000125 0.001703687 4284106015
-0.051416636 0.0019724369 0.0018696841 4283643923
-0.05134362 -0.0023534521 0.0022039618 4280101173
-0.052675843 -0.0059725791 0.0017976575 4279118657
-0.05399996 -0.0096220821 0.00082560629 4278922308
-0.053230762 -0.014299288 0.0015379824 4278987843
-0.051689565 -0.01782636 0.0021507423 4279183936
-0.051199913 -0.022488125 0.0024965946 4279707451
-0.052639008 -0.025724187 0.001749808 4280755254
-0.053692222 -0.029834367 0.0007529594 4280035381
-0.053478301 -0.034372255 0.0014540739 4279314489
-0.05212003 -0.037451074 0.0018792506 4279182645
-0.050999939 0.0054211468 -0.0010312404 4284292639
-0.050999761 0.0019455552 -0.0016275439 4285012760
-0.050999761 -0.0020748116 -0.0022174325 4284226330
-0.051333249 -0.0059263855 -0.001932146 4280691257
-0.051903307 -0.009850651 -0.0016764496 4280037189
-0.051555514 -0.013485555 -0.0010797922 4280823364
-0.050999999 -0.016380351 -0.00036039203 4281412161
-0.050999999 -0.023647517 -0.00036039203 4284554533
-0.051454544 -0.026237674 -0.00057479925 4284554016
-0.051461577 -0.030056588 -0.00068532117 4281541931
-0.051600039 -0.03374479 -0.00059272163 4279380534
-0.050999999 -0.036917984 -0.00036039017 4279511866
-0.050999999 -0.0020987801 -0.0044152923 4285404690
-0.050999999 -0.0056088567 -0.0043922551 4284160281
-0.050999999 -0.0087972209 -0.0041618627 4283702309
-0.048500001 -0.018210426 0.072409928 4287203194
-0.048666656 0.0052821673 0.068259776 4288774988
-0.049500048 -0.01811032 0.071049355 4287728766
-0.047000051 0.0088182222 0.065117218 4291010371
-0.048565269 0.0062427334 0.065944314 4289956920
-0.048647165 0.0099093728 0.06287311 4291273281
-0.050000072 0.0072604865 0.063389033 4291470141
-0.050000012 0.012324637 0.052599601 4287657021
-0.050000012 0.011375109 0.052599601 4287655988
-0.048000038 0.016040415 0.048890851 4289301570
-0.048413932 0.013519017 0.049956758 4289695296
-0.049647093 0.011078419 0.049985681 4288508964
-0.050000012 -0.029612869 0.048632905 4286412132
-0.050000012 0.016439261 0.045300871 4290417723
-0.04945457 0.013710106 0.046769042 4290878260
-0.050000072 0.011058599 0.047522224 4291668027
-0.049000025 -0.031159639 0.044072963 4288247618
-0.049000025 -0.032427862 0.044072963 4287723602
-0.049777806 -0.031451225 0.042489067 4288970558
-0.049666762 -0.033013001 0.041788235 4289036610
-0.048200071 0.024621254 0.037739567 4290615352
-0.049500108 0.02302663 0.037972201 4290681397
-0.050000012 -0.034518756 0.038954146 4289759548
-0.047000051 0.028406965 0.032034673 4290221117
-0.047583282 0.025735587 0.033793122 4290549557
-0.049250066 0.023381323 0.034212954 4290681392
-0.049571455 -0.039279841 0.033796664 4289233467
-0.049125016 -0.040733539 0.033261932 4288707390
-0.046999931 0.029773125 0.029501613 4289958202
-0.048621714 0.025859483 0.029834822 4290088999
-0.049857199 0.023714967 0.030071676 4290285600
-0.050000012 -0.039582908 0.031338073 4289364020
-0.048612952 -0.04221075 0.030092385 4288444728
-0.047000051 -0.044766746 0.030439787 4287462235
-0.046999991 0.029202331 0.027090518 4289760040
-0.048133373 0.025700025 0.026216608 4289363987
-0.049454629 0.02324309 0.025399623 4288968973
-0.048500121 -0.042455107 0.026086647 4288640806
-0.047333419 0.024492148 0.023526462 4288903184
-0.048357248 0.021973493 0.022140702 4288245783
-0.049600065 0.019780412 0.021310842 4285682976
-0.048384666 -0.042100221 0.022459742 4287983125
-0.047142863 0.021048933 0.018728845 4282135074
-0.048666775 0.018346926 0.017743647 4283517233
-0.050000012 0.015278723 0.016317487 4287526947
-0.04975003 -0.039617211 0.017056262 4287260439
-0.04825002 -0.041133419 0.017964484 4287325973
-0.047000051 0.020453298 0.015128855 4280561206
-0.04770273 0.017695384 0.013971715 4286934820
-0.049379349 0.014109433 0.013581825 4286605082
-0.050000012 0.011533363 0.012773898 4283382031
-0.049000084 -0.039012067 0.013518173 4285552160
-0.047874987 -0.040668905 0.014180261 4287063837
-0.047269225 0.017184943 0.0102013 4285682700
-0.048351407 0.01389394 0.010004842 4286275865
-0.049739182 0.010577841 0.0096439356 4286078753
-0.049000084 -0.038389906 0.010250492 4280756001
-0.04733336 -0.040796839 0.0097124856 4284237602
-0.047000051 0.016635539 0.0077923667 4287789343
-0.047527671 0.013849795 0.006369113 4287328538
-0.0492751 0.010009211 0.0060286401 4286538781
-0.050000072 0.0075769909 0.0053164959 4286934305
-0.049600065 -0.039447889 0.0063229408 4279837483
-0.048409164 -0.041215874 0.005797538 4281477660
-0.047500074 0.012806168 0.0024202801 4281874216
-0.049158037 0.010133544 0.0019163508 4281217328
-0.050000072 0.0075769909 0.0027778074 4285620266
-0.050000072 -0.00088963658 0.00079445168 4281213733
-0.050000072 -0.019115303 0.00066222809 4280428094
-0.050000072 -0.021621007 0.0010324549 4281017143
-0.04975009 -0.039458953 0.0015000813 4279445559
-0.048161328 -0.041721083 0.0020657685 4281281832
-0.048000038 0.012229202 -0.00046588667 4279512388
-0.048866749 0.0097979624 -0.0018351935 4283572525
-0.049800038 0.0064133964 -0.0026123468 4285340446
-0.050000072 0.0018798262 -0.0035689231 4285732886
-0.050000072 -0.00096876174 -0.0008488968 4284029978
-0.050000012 -0.010970462 -0.0034419857 4283572009
-0.049722254 -0.014288392 -0.0028396975 4284228137
-0.049400032 -0.017939556 -0.0020513013 4284622124
-0.049052656 -0.022009436 -0.0020189509 4285209631
-0.049230874 -0.025962912 -0.0025256537 4285602072
-0.049076915 -0.030052595 -0.002605347 4284889381
-0.048692405 -0.034174137 -0.0025469456 4284635697
-0.048230827 -0.037896775 -0.0019524079 4283715889
-0.047333419 -0.040796839 -0.0007019788 4280230693
-0.047600091 0.0091591813 -0.004431339 4286060827
-0.048272729 0.0056339651 -0.0051447116 4286061080
-0.048846364 0.0019754618 -0.0058674682 4285929234
-0.049846232 -0.0018319376 -0.0063101538 4285732625
-0.049793124 -0.0060492232 -0.0062268004 4284815124
-0.048972309 -0.010184173 -0.005995784 4284881691
-0.04811424 -0.01407592 -0.0058300775 4286069047
-0.047703743 -0.017866835 -0.0054329149 4285943884
-0.047400057 -0.021906879 -0.0052306112 4286863701
-0.047285736 -0.025690906 -0.0051370878 4286267965
-0.047000051 -0.030132003 -0.0043287836 4286861351
-0.047000051 -0.033949763 -0.0043287836 4287066143
-0.047000051 -0.036494941 -0.0043287836 4287196958
-0.047000051 0.00094030797 -0.0085818209 4285732881
-0.047862053 -0.0022150651 -0.0094341487 4285935658
-0.048304319 -0.0059192218 -0.0091741327 4285939001
-0.047515154 -0.0097561479 -0.0094071142 4286337872
-0.047000051 -0.012888469 -0.0086668842 4287987062
-0.044714332 0.0096535422 0.066118754 4290550869
-0.04549998 0.0070064776 0.067350328 4290354519
-0.046000004 0.025943771 0.037380729 4290352186
-0.046000004 0.028387081 0.033333417 4290220860
-0.046000004 0.027176049 0.035378374 4290352441
-0.046000004 0.032530077 0.028221015 4289826625
-0.045538425 -0.045789331 0.029211007 4287462494
-0.044857144 0.032972138 0.025811125 4289497657
-0.045333385 0.030288197 0.025542418 4289562407
-0.045666695 0.026786262 0.024708748 4289166353
-0.046000004 -0.043956071 0.025345296 4288312366
-0.04399997 -0.045991525 0.02610244 4287590977
-0.042000055 -0.048381604 0.026347049 4287597693
-0.042458355 0.033687785 0.021760417 4289036589
-0.043357313 0.029935509 0.022158824 4288903959
-0.044697046 0.025932826 0.022027891 4288706065
-0.045799971 0.023473602 0.021319469 4288574742
-0.046000004 -0.043136574 0.021556644 4287720471
-0.043117702 -0.045162417 0.022405807 4287851813
-0.041999936 0.034083292 0.018774407 4288641832
-0.042190671 0.030052908 0.018135775 4288508953
-0.04323405 0.026010502 0.017917747 4286734620
-0.045249999 0.022492396 0.017628008 4282004005
-0.044625044 -0.043075897 0.017790984 4287325974
-0.042428613 -0.044469498 0.017983034 4287391769
-0.042000115 0.02941826 0.014517891 4286931745
-0.043095231 0.026088987 0.013811614 4281543975
-0.045470715 0.022091752 0.013761345 4280758327
-0.046000004 0.019654907 0.013011634 4286804536
-0.044090986 -0.042720392 0.013706082 4287194394
-0.042000055 -0.044531114 0.01412194 4287194393
-0.042888939 0.025763184 0.0099547524 4279839032
-0.044861197 0.021979172 0.0099884197 4283979067
-0.045933366 0.01927017 0.0098150643 4287197472
-0.044428468 -0.042722128 0.010118704 4286933028
-0.042250156 -0.04497648 0.0094617857 4286932253
-0.042222381 0.025746292 0.0060839374 4279576891
-0.043194413 0.021927658 0.0061061224 4282204472
-0.045057178 0.018200127 0.0061049424 4284962333
-0.046000004 0.015639385 0.0052152295 4287986725
-0.04549998 -0.043007366 0.0066741398 4286407984
-0.043387055 -0.045716487 0.005936563 4286866720
-0.042142987 -0.049781151 0.0049338248 4286801979
-0.042000055 -0.052232109 0.0047922526 4287597953
-0.042000055 0.02105576 0.0036984254 4279708991
-0.042937458 0.017855279 0.0023867916 4279971901
-0.045064688 0.014766861 0.0017836951 4281087798
-0.046000004 -0.043773957 0.0020199828 4285881904
-0.044162154 -0.046035536 0.0018761531 4286669861
-0.043138921 -0.049723268 0.0022342764 4286868290
-0.04285723 -0.052280702 0.0028406847 4287532160
-0.04215008 0.017115008 -0.0020548068 4280036676
-0.043862104 0.014613999 -0.0020718221 4281412157
-0.045799971 -0.038756743 -0.0036117826 4286803493
-0.044709682 -0.0420819 -0.0024011713 4285685547
-0.042875111 -0.045286901 -0.0015704148 4286670380
-0.042000055 -0.049665108 -3.3447519e-05 4286801726
-0.041999996 0.01724579 -0.0059258845 4284620842
-0.042800069 0.014001096 -0.0060468838 4285930012
-0.04430306 0.010077938 -0.0063458774 4285864987
-0.045499921 0.0065682046 -0.0068302918 4286723120
-0.046000004 0.0038477704 -0.0075657628 4284748044
-0.046000004 -0.015911151 -0.0075657628 4288712071
-0.046000004 -0.018460687 -0.0073527433 4287923842
-0.046000004 -0.021966308 -0.0072462391 4286210396
-0.045750022 -0.026137732 -0.0069384463 4285811262
-0.045125067 -0.029978707 -0.0063077658 4287190814
-0.044874907 -0.034079686 -0.0063992366 4287459348
-0.044290304 -0.038057305 -0.0060558189 4287328022
-0.04262507 -0.041436329 -0.0053958595 4287196697
-0.042000055 0.016435158 -0.0083979964 4284552734
-0.042090893 0.013814006 -0.0094172359 4288643196
-0.042371511 0.010036971 -0.0096668117 4287528311
-0.043342888 0.0058792681 -0.0098938104 4286008650
-0.045125067 0.0022381358 -0.010128044 4285475108
-0.045857072 -0.0010789745 -0.011133868 4287392101
-0.046000004 -0.010812074 -0.011080539 4287066993
-0.045500159 -0.014151461 -0.010020491 4285685080
-0.044574976 -0.018060625 -0.0099401735 4286411887
-0.044499993 -0.022125464 -0.0098798014 4285354828
-0.0441944 -0.02599436 -0.0098956842 4285746241
-0.043611109 -0.029899672 -0.0099252295 4286661903
-0.043841958 -0.033828586 -0.0098454077 4287786766
-0.042571485 -0.037557431 -0.0098626986 4287721229
-0.041999996 0.005140353 -0.013481069 4286212194
-0.043305576 0.002081003 -0.013792548 4287001971
-0.04442513 -0.001905147 -0.013664719 4285949027
-0.043678641 -0.0060547963 -0.01425299 4286740852
-0.044222176 -0.010007549 -0.013740256 4286213224
-0.043361127 -0.013923489 -0.013789978 4285024067
-0.04275012 -0.017825041 -0.013825063 4285285948
-0.042500198 -0.022017077 -0.013839141 4285412641
-0.042235434 -0.026120737 -0.013778329 4285275409
-0.042142808 -0.030257709 -0.0134915 4286000394
-0.042400122 -0.033699729 -0.013587486 4287917330
-0.042000055 -0.036830105 -0.012901984 4287786764
-0.042000055 0.0045627803 -0.016762543 4282786847
-0.042297542 0.0018505566 -0.017822191 4286270537
-0.042690635 -0.0018054321 -0.01800542 4284953645
-0.042653203 -0.0059751123 -0.018007942 4284426529
-0.042500138 -0.010154899 -0.018017985 4284688408
-0.042024016 -0.014045857 -0.018047925 4285541904
-0.042000055 -0.017449252 -0.016762536 4286002454
-0.042000055 -0.020465482 -0.016119111 4285476101
-0.042000055 -0.026562102 -0.019979674 4288049430
-0.042000115 -0.029420808 -0.019453239 4287918100
-0.042000055 0.00071227923 -0.020623103 4285733397
-0.041999996 -0.0020839199 -0.021542277 4285798418
-0.042000175 -0.0061223656 -0.022167321 4285273613
-0.042000055 -0.010057092 -0.02213113 4284880906
-0.042000115 -0.013143696 -0.021442004 4285208839
-0.042000055 -0.026387081 -0.022319406 4287983890
-0.042000115 -0.030091718 -0.022231676 4287852302
-0.042000115 -0.032658719 -0.022231661 4287786766
-0.042000055 -0.0034591034 -0.025770515 4288310308
-0.041999996 -0.0060261078 -0.025641825 4287586589
-0.042000055 -0.0098766088 -0.024644516 4284686856
-0.042000055 -0.012443606 -0.024483662 4285012490
-0.041999996 -0.026562102 -0.025234327 4287918351
-0.042000115 -0.029537492 -0.024951607 4287852558
-0.041000009 -0.047567651 0.024746541 4286736451
-0.040200055 -0.048780948 0.024688315 4287200615
-0.039999962 -0.046867602 0.021789743 4287523376
-0.039375007 -0.048695549 0.023224317 4286803536
-0.041000009 0.036644593 0.017012285 4288314933
-0.041000009 0.035680331 0.016690023 4288445742
-0.039818168 -0.045840718 0.018562434 4287457307
-0.039499998 0.032446936 0.013773317 4288312352
-0.040381074 0.030559096 0.013337422 4287786785
-0.039705873 -0.045847043 0.013414835 4287128601
-0.039889038 0.029733568 0.010010844 4283185436
-0.041000009 0.027966231 0.0099225547 4280821033
-0.040125012 -0.04653164 0.010109068 4286931739
-0.039285719 -0.048605464 0.0088315569 4286800159
-0.040111125 0.029737137 0.0059265988 4280755236
-0.041000009 0.027966231 0.0060554277 4280035125
-0.041000009 -0.047631934 0.0071511148 4286800414
-0.040200055 -0.050229698 0.0067148264 4286670394
-0.039499998 -0.052753039 0.0067960257 4287597436
-0.039000034 0.032440543 0.0011577588 4282922003
-0.039636493 0.030047674 0.0020584613 4280493354
-0.039857209 0.026010538 0.0021525994 4279380542
-0.040193558 0.021969769 0.001923386 4279315777
-0.040599942 0.019080952 0.00082161836 4279250498
-0.041000009 -0.051746123 0.00057700463 4287793526
-0.041000009 -0.052388966 0.00057700463 4287269760
-0.039000034 0.032440543 -0.00013566203 4282856471
-0.039000273 0.029838201 -0.0016074833 4280034353
-0.039000094 0.026369723 -0.0013149586 4279249214
-0.039459586 0.021612117 -0.0020055436 4279381059
-0.040619075 0.018953051 -0.0020146873 4279578180
-0.040461421 -0.0465343 -0.0028155465 4286604068
-0.039722264 -0.049546964 -0.0014754161 4286868286
-0.039000273 0.029782258 -0.0060148332 4280035123
-0.039000332 0.026006836 -0.0062545203 4279316035
-0.03965801 0.021886561 -0.0061310902 4280232769
-0.041000009 0.018890817 -0.0064369068 4283051581
-0.040352941 -0.04230798 -0.0068837162 4287393300
-0.039615333 -0.04527086 -0.005332984 4286933018
-0.039000034 0.032440539 -0.011453077 4287394107
-0.039000273 0.029981386 -0.010240493 4281086257
-0.039000154 0.026573889 -0.0095283445 4279250500
-0.039333522 0.021432137 -0.0096582957 4279774019
-0.040342867 0.018024104 -0.010137964 4283510845
-0.040999949 0.014742058 -0.010978339 4286666582
-0.041000009 0.009966664 -0.011668898 4283974460
-0.041000009 0.0073952973 -0.011668898 4283048989
-0.041000009 -0.039210707 -0.011024376 4287589642
-0.039666712 -0.041108824 -0.0098028239 4287590157
-0.039000034 0.032440539 -0.014039915 4287262515
-0.039000094 0.030505467 -0.013393205 4284305973
-0.039500117 0.017946979 -0.014011119 4284035367
-0.040722132 0.014133453 -0.013941079 4287192923
-0.04099983 0.0099666659 -0.013924733 4286147429
-0.041000009 0.0066720992 -0.014408112 4288055168
-0.041000009 -0.027960986 -0.015213761 4285536779
-0.041000009 -0.029568091 -0.015213761 4285670407
-0.041000009 -0.035032235 -0.015213758 4287786765
-0.040481448 -0.038316064 -0.014277004 4287786765
-0.039000034 -0.040662229 -0.014219552 4287523851
-0.039047778 0.017146153 -0.017778669 4285211656
-0.03994441 0.014099585 -0.017860331 4287918700
-0.040618837 0.0099475533 -0.017816979 4284758324
-0.041000068 0.0060453303 -0.017985206 4286206540
-0.041000009 0.0035382472 -0.019080888 4285211164
-0.041000068 -0.01831837 -0.018482395 4285603585
-0.040999949 -0.021929625 -0.017886624 4285735683
-0.04099983 -0.02603247 -0.017791834 4287056661
-0.041000068 -0.030403785 -0.017534036 4287982365
-0.040944338 -0.034075111 -0.017795522 4287852052
-0.040027797 -0.038054019 -0.017854512 4287654925
-0.039000034 -0.040689103 -0.017354298 4287128584
-0.039000034 0.016314927 -0.020507015 4286064661
-0.039069176 0.013871459 -0.021472391 4286529083
-0.039567709 0.010155352 -0.021717407 4285472537
-0.040170133 0.005979944 -0.022040978 4285929747
-0.040837765 0.0020686053 -0.022219695 4285995026
-0.041000009 -0.0016044863 -0.023270279 4285994768
-0.041000009 -0.004175853 -0.023592532 4285206022
-0.041000009 -0.011407822 -0.023109142 4284946443
-0.041000128 -0.014538467 -0.022651531 4285340170
-0.04099983 -0.017996941 -0.021981228 4286263567
-0.04099983 -0.021853991 -0.021981239 4287849245
-0.040999949 -0.024337687 -0.021629672 4288048920
-0.041000009 -0.031818032 -0.020047668 4287918099
-0.040933371 -0.034590818 -0.021857258 4287786767
-0.039772749 -0.037531555 -0.021335155 4287457804
-0.039000034 0.012767293 -0.024063915 4286388499
-0.039000154 0.0094705019 -0.025177699 4286454033
-0.039428771 0.0060200468 -0.026201654 4286654740
-0.040249944 0.0018832311 -0.026229616 4287054617
-0.040969729 -0.0017818771 -0.026202369 4287321371
-0.040999949 -0.0057186782 -0.027266301 4287851540
-0.040766776 -0.0102388 -0.026662089 4286863894
-0.040199876 -0.01425951 -0.026280597 4286993690
-0.040333271 -0.018062234 -0.026223913 4288114973
-0.040749967 -0.021880116 -0.026190802 4287984148
-0.040739179 -0.025474623 -0.026794262 4287918352
-0.040416777 -0.030307345 -0.026700966 4287918351
-0.040000021 -0.033569187 -0.025508963 4287786765
-0.039000034 -0.036577076 -0.024063911 4287655181
-0.039062738 0.0054742172 -0.030121688 4286009365
-0.039638937 0.0018434003 -0.030154072 4285944596
-0.040333271 -0.001972843 -0.030095018 4286997525
-0.04066658 -0.0058088712 -0.030066777 4287721489
-0.039891899 -0.0097952224 -0.030088797 4287918610
-0.039000213 -0.013595097 -0.029788498 4287392273
-0.039166689 -0.018177111 -0.028900534 4288049940
-0.039318323 -0.022177089 -0.029475946 4288049935
-0.039461613 -0.025833063 -0.029647112 4288049420
-0.039384604 -0.029139385 -0.029205792 4288049934
-0.039000034 0.0047044866 -0.032794494 4284497932
-0.039000034 0.0016778298 -0.032869115 4285616924
-0.039200127 -0.002214849 -0.033261664 4284301578
-0.039470673 -0.0059776008 -0.033950582 4284894480
-0.039230883 -0.0092933178 -0.033893187 4285287954
-0.039000034 -0.0075509772 -0.036674749 4287855922
-0.039000034 -0.0081960037 -0.036674749 4285750546
-0.038000047 -0.047690615 0.020559991 4287392050
-0.036961555 -0.050334662 0.021733478 4287266148
-0.035749972 -0.052563906 0.021537108 4287203967
-0.037411809 -0.047207639 0.017585311 4287260191
-0.035515249 -0.049985498 0.018235374 4286868289
-0.035000026 -0.052356027 0.018935114 4287268731
-0.035909057 0.033521984 0.013174994 4288247073
-0.038000047 0.031781636 0.012138539 4288575783
-0.037200034 -0.047421448 0.014268298 4287062811
-0.035222232 -0.049508713 0.013403706 4286799910
-0.035000026 -0.052356027 0.012098704 4287135078
-0.036333382 0.032730944 0.0098419804 4288115748
-0.037555575 0.031560093 0.0095392326 4287261477
-0.038000047 -0.047690615 0.011166837 4286997275
-0.036703646 -0.050329089 0.010030556 4286406960
-0.036500037 -0.052851319 0.0096850498 4287530868
-0.036333323 0.033332989 0.0056202356 4287853099
-0.037666738 0.031561635 0.0063009607 4283644424
-0.035857141 0.03656891 0.001243582 4287918639
-0.037322521 0.034089155 0.0020881612 4287524396
-0.038000047 0.031781632 0.0030692872 4282131200
-0.036333442 0.036618009 -0.0018502213 4287787312
-0.037885904 0.034088351 -0.0018398464 4287064109
-0.038000047 0.031597029 -0.0023907721 4281081360
-0.038000047 0.025708146 -0.0020872261 4279183936
-0.038000047 0.023382127 -0.0014653392 4279118913
-0.037500024 -0.05051367 -0.0029423945 4287264857
-0.036750019 -0.052408136 -0.0024848282 4287662716
-0.03549999 0.036532085 -0.005378658 4287459382
-0.037315786 0.03396906 -0.0058258474 4287196725
-0.038000047 0.031638052 -0.0057840329 4281607955
-0.038000047 0.025901981 -0.0048339199 4279249986
-0.038000047 -0.043813922 -0.0079433732 4287261200
-0.037285686 -0.046595655 -0.006556632 4286800925
-0.035964251 -0.049937636 -0.0054864343 4287132755
-0.035000026 -0.052356027 -0.0051550902 4287401088
-0.035000026 0.036285717 -0.0084105264 4286803001
-0.036461592 0.033754956 -0.009588873 4287394358
-0.038000047 0.031781632 -0.0095628854 4285751091
-0.038000047 0.025382012 -0.010843066 4279185737
-0.038000047 0.022520639 -0.011182398 4279580752
-0.03772229 -0.043099388 -0.01054916 4287326733
-0.036454499 -0.046094693 -0.010083087 4286800415
-0.034999847 -0.049109079 -0.010088323 4287594859
-0.038000047 0.032912336 -0.014097512 4287196730
-0.038000047 0.029907895 -0.014615748 4284568889
-0.037833512 0.025962355 -0.014107157 4279448905
-0.03797251 0.021766061 -0.014099039 4281090377
-0.037740707 -0.0427019 -0.014052439 4287194896
-0.036470652 -0.046203256 -0.014261845 4287330132
-0.035249889 -0.049639858 -0.01379431 4287532421
-0.038000047 0.032750808 -0.016364824 4286802751
-0.038000047 0.030058656 -0.017120596 4286934329
-0.037111044 0.025705244 -0.017429315 4284372271
-0.037105262 0.021859223 -0.018111117 4287723303
-0.038000047 0.018988537 -0.018178675 4286270997
-0.037740767 -0.042582005 -0.018109486 4286865952
-0.036833405 -0.045382552 -0.017518625 4287199067
-0.035583377 0.021044333 -0.021066505 4288313625
-0.037147105 0.017954735 -0.022008486 4286594574
-0.038000047 0.014798015 -0.023213036 4286126866
-0.037416697 -0.039153695 -0.022453666 4287128588
-0.036454558 -0.041736498 -0.02088863 4286931745
-0.036000013 -0.044421226 -0.020387631 4286739035
-0.036035776 0.017447241 -0.025724705 4286392324
-0.037411749 0.01406409 -0.025899515 4286454029
-0.037833393 0.010846525 -0.026275162 4286454031
-0.037 -0.034679592 -0.026808619 4287589132
-0.036200047 -0.037501954 -0.02535636 4287326221
-0.035000026 0.016804013 -0.028594207 4286193152
-0.035730779 0.013589663 -0.029435836 4287116816
-0.037052751 0.0100221 -0.029844388 4288109852
-0.038000047 0.0076403879 -0.030322053 4286534416
-0.038000047 -0.01460949 -0.031329092 4286603022
-0.037703753 -0.017926503 -0.030930277 4287721231
-0.037733316 -0.021830335 -0.031460442 4288115469
-0.038000047 -0.026174955 -0.031652998 4288115212
-0.037100017 -0.030288003 -0.030758779 4287983628
-0.036500037 -0.033060871 -0.029168632 4287720716
-0.035862088 0.0096835662 -0.033848189 4287259407
-0.037499964 0.0063935295 -0.034387995 4286997788
-0.037740707 0.0021154732 -0.034887657 4285485847
-0.037937522 -0.0019418187 -0.035197515 4286408483
-0.038000047 -0.0047239177 -0.035798937 4286737697
-0.038000047 -0.01118508 -0.034632888 4285683484
-0.037639022 -0.013803042 -0.03421282 4284762642
-0.036484778 -0.017705794 -0.034170926 4286209296
-0.036410272 -0.022111665 -0.034200739 4287129351
-0.036472142 -0.026216105 -0.034320056 4287984397
-0.035702825 -0.030203402 -0.034117151 4287786763
-0.035399973 0.0086429641 -0.037215307 4283773440
-0.035826147 0.00606592 -0.037587382 4285090844
-0.035894811 0.0021303631 -0.038205914 4284828440
-0.036524951 -0.0020166747 -0.038276941 4285815323
-0.037558973 -0.0059552714 -0.038186558 4285486614
-0.037323534 -0.010045335 -0.038209889 4283315208
-0.03622216 -0.013931829 -0.038241897 4284631835
-0.035142779 -0.017739221 -0.037695713 4283775761
-0.035131693 -0.022162341 -0.037953708 4286867739
-0.035666943 -0.026089571 -0.038295854 4287787535
-0.035250187 -0.030198887 -0.038287591 4287721230
-0.035000086 -0.032549627 -0.038034961 4287654678
-0.035181761 -0.0025757439 -0.041538071 4286275365
-0.035833359 -0.0061842501 -0.041855462 4285288987
-0.035615385 -0.0099944472 -0.04167781 4283249678
-0.035100043 -0.013188999 -0.041215096 4284960551
-0.035000026 -0.022808775 -0.040639304 4287525656
-0.034999967 -0.026218079 -0.041127626 4287918605
-0.035000026 -0.029519148 -0.040856335 4287786764
-0.034000039 -0.051535524 0.016976781 4286344013
-0.033285677 -0.053413317 0.017532796 4287335297
-0.032250047 0.03463798 0.013206234 4288312867
-0.033999979 -0.051070899 0.014461227 4286275645
-0.033346176 -0.053314485 0.014186608 4287466107
-0.032200038 0.034180805 0.0083983615 4288115491
-0.034000039 -0.053812206 0.011107153 4287795587
-0.031800032 0.036396492 0.0049870489 4287918378
-0.032538474 0.034866292 0.0061819907 4288049702
-0.033142924 0.036925852 0.0027438831 4287787311
-0.034000039 0.035628993 0.0032809805 4287984171
-0.032999992 0.037316404 -0.0065467488 4287001422
-0.034000039 -0.051210284 -0.0071539115 4287992194
-0.033500075 -0.052697547 -0.0067416281 4287401346
-0.032250047 0.037126061 -0.0096446481 4287793527
-0.034000039 0.035303753 -0.010414818 4286803521
-0.03392303 -0.051147044 -0.0098415986 4287466625
-0.033555567 -0.052471943 -0.0094580073 4287401348
-0.031000018 0.036587626 -0.012206569 4287926403
-0.034000039 -0.050885044 -0.012045264 4287466887
-0.031500041 0.024832964 -0.021021333 4288182051
-0.032904804 0.02193637 -0.02234083 4288379162
-0.03285718 -0.042214602 -0.022749044 4286932787
-0.031666696 -0.045037828 -0.021554939 4287068774
-0.031384647 0.020834696 -0.026144318 4288443672
-0.033538401 0.019401519 -0.026630007 4288375576
-0.034000039 -0.035923965 -0.027697604 4287589136
-0.032545447 -0.038481109 -0.026863299 4287260179
-0.032000005 -0.040747404 -0.02480394 4286865435
-0.031000018 0.020897487 -0.028920893 4288311836
-0.032457232 0.018177973 -0.030287866 4287517971
-0.033700049 0.014670808 -0.031049713 4288373534
-0.03285706 -0.034533396 -0.030497052 4287523341
-0.032000065 -0.036750242 -0.029085021 4287325967
-0.031000018 0.017208437 -0.032994129 4288640541
-0.032187462 0.013739131 -0.033710305 4288574743
-0.033571482 0.011354877 -0.034538385 4288443665
-0.032607198 -0.034053549 -0.03411261 4287523346
-0.031000018 -0.036633022 -0.035803258 4287194133
-0.031000018 0.012538753 -0.037020553 4288575249
-0.032821476 0.010155838 -0.038061436 4287325970
-0.033714294 0.0062487349 -0.039372191 4283907606
-0.034000039 -0.018825602 -0.039157357 4283907609
-0.034000039 -0.020529248 -0.039219469 4284104461
-0.033375025 -0.034376159 -0.037866555 4287588888
-0.031935513 -0.037619591 -0.038206797 4287259675
-0.031000018 -0.04022868 -0.039408308 4287128358
-0.031400025 0.0091180261 -0.041563679 4286932503
-0.032055497 0.0059216879 -0.041922521 4285487396
-0.032866657 0.0020579025 -0.042164516 4284960538
-0.03361541 -0.0011744797 -0.042738479 4284367887
-0.034000039 -0.010880433 -0.043349948 4283447829
-0.033649981 -0.014587805 -0.042441372 4284171552
-0.033058822 -0.018203877 -0.041913904 4283447576
-0.033551753 -0.021794081 -0.042092729 4286604830
-0.03366667 -0.0255531 -0.0426245 4287853070
-0.033636451 -0.02993498 -0.042469513 4287786764
-0.033151507 -0.03388083 -0.041936848 4287588887
-0.032277942 -0.037774771 -0.041898206 4287325724
-0.031000018 -0.040882446 -0.042030163 4287128617
-0.031000018 0.0084761232 -0.045635212 4287261462
-0.031000018 0.0061879791 -0.045504112 4286735901
-0.031323552 0.0018827096 -0.045831513 4286341400
-0.032305539 -0.0018919595 -0.045820374 4286341145
-0.032947361 -0.0058768243 -0.045681093 4286341146
-0.032999933 -0.01008619 -0.045808535 4285618711
-0.032805562 -0.014241833 -0.04576404 4285618972
-0.032000244 -0.01823049 -0.045852792 4284040209
-0.031944752 -0.022152372 -0.045859095 4287262490
-0.032000065 -0.026062123 -0.045853805 4287853068
-0.032055616 -0.02997224 -0.045847829 4287786765
-0.031451702 -0.033909626 -0.045649786 4287588887
-0.031181931 -0.037679538 -0.045258071 4287391258
-0.031000018 -0.040789045 -0.044792477 4287194147
-0.031000018 0.0012848154 -0.048584793 4286537484
-0.031000018 -0.002180092 -0.048781436 4285945350
-0.031266749 -0.0060817115 -0.049602907 4286932501
-0.031894803 -0.0098742731 -0.04972313 4286209296
-0.032350183 -0.01405441 -0.049804229 4286077454
-0.031944633 -0.018236049 -0.049785655 4286143243
-0.031218648 -0.022064615 -0.049706753 4287853074
-0.031000018 -0.025846049 -0.0485848 4287918606
-0.031000018 -0.0072140098 -0.052189853 4287590681
-0.031052649 -0.0099105351 -0.052907962 4287853337
-0.031318247 -0.013693124 -0.052955937 4287787801
-0.031000018 -0.018099044 -0.052878086 4287787800
-0.031000018 -0.021008257 -0.052583132 4287721746
-0.028800011 0.036247015 0.013330797 4288247592
-0.028800011 0.035590857 0.013330797 4288247591
-0.027999938 0.036336038 0.0094648656 4288050471
-0.02907145 0.035078168 0.0099066375 4288115749
-0.02700001 0.040184505 0.0040743761 4287199838
-0.02834785 0.037729792 0.0057422323 4287656501
-0.030000031 0.03559966 0.0071081175 4288049960
-0.027800024 0.040447075 0.0021190476 4287859576
-0.028750002 0.038544942 0.0034626704 4287263297
-0.030000031 0.037891623 -0.010290666 4287532164
-0.02757144 0.025156211 -0.022467356 4288181282
-0.029599965 0.023408709 -0.023056835 4288312860
-0.029125035 -0.045480385 -0.022745695 4286938735
-0.028000057 0.022576615 -0.025740921 4288378139
-0.029000044 -0.041808166 -0.025522772 4286932273
-0.02700001 -0.044713154 -0.024298768 4288450425
-0.028407395 0.022239037 -0.030119427 4288180257
-0.030000031 0.019883325 -0.031957075 4288443427
-0.030000031 -0.035778686 -0.031628791 4287588884
-0.02853334 -0.038240388 -0.030021682 4287259924
-0.02700001 -0.040325686 -0.028917655 4287128349
-0.027961552 0.021938574 -0.033274367 4288180516
-0.029083371 0.01845913 -0.034338962 4288443421
-0.029800057 0.015094927 -0.035389699 4288641042
-0.030000031 -0.035778686 -0.032941911 4287391508
-0.02860719 -0.037784278 -0.034051463 4287194134
-0.02700001 -0.040106311 -0.034856219 4286996774
-0.027285695 0.017693589 -0.037343178 4288443926
-0.028838694 0.014152749 -0.038338847 4288509457
-0.030000031 0.011370312 -0.03983577 4288509968
-0.029142916 -0.03944698 -0.036726937 4287128356
-0.028518558 -0.041898392 -0.038421918 4286868030
-0.027166605 -0.045238182 -0.039238721 4287664001
-0.02699995 0.016492136 -0.041784547 4288575249
-0.028075039 0.014121396 -0.041954245 4288641041
-0.029600024 0.010860313 -0.042733658 4288444177
-0.029333353 -0.043074571 -0.04220276 4287065671
-0.027411759 -0.045429446 -0.041296288 4287268211
-0.027785778 0.013871294 -0.046057995 4288575250
-0.029624999 0.01055452 -0.046216946 4288443920
-0.030000031 0.0053948313 -0.04664756 4286669844
-0.030000031 0.0031847209 -0.047714461 4287590681
-0.030000031 -0.034468994 -0.047714461 4287523095
-0.029833436 -0.038310632 -0.047076713 4287325466
-0.029176533 -0.04267244 -0.045835223 4287129138
-0.02700001 -0.044055037 -0.047063272 4287064382
-0.027294159 0.013601921 -0.04930013 4288575249
-0.028717935 0.0098967962 -0.050036695 4287852305
-0.02974993 0.0057901777 -0.050042082 4286011155
-0.029999852 0.0020621233 -0.050387602 4286867226
-0.029999971 -0.0019137301 -0.05080967 4286735378
-0.030000091 -0.0050008669 -0.051325534 4287722271
-0.030000031 -0.023664013 -0.051325534 4287853326
-0.029913008 -0.026221968 -0.050465215 4287918605
-0.029200017 -0.029940806 -0.050060082 4287721229
-0.028407395 -0.033937074 -0.049772914 4287654423
-0.0281111 -0.036892928 -0.049391758 4287522842
-0.027124941 0.009835165 -0.052656855 4286868797
-0.02790004 0.0057726614 -0.053750176 4287136118
-0.028657973 0.001911059 -0.054187726 4286412132
-0.029055715 -0.0021202527 -0.054069232 4287065126
-0.029794037 -0.0059215017 -0.054074083 4287984662
-0.030000031 -0.0098159201 -0.054975223 4288115989
-0.030000031 -0.014037758 -0.055067908 4287984403
-0.029333472 -0.017834578 -0.055020224 4287918610
-0.029483855 -0.022228159 -0.054217603 4287918865
-0.028562546 -0.025888786 -0.054171365 4287918864
-0.027466655 -0.029391542 -0.053231094 4287852558
-0.02700001 -0.033196032 -0.052012082 4287720473
-0.027083278 0.0011963286 -0.057115261 4286480000
-0.027290523 -0.0023393519 -0.057998795 4283911237
-0.028083503 -0.0061294995 -0.058140945 4283710750
-0.028333366 -0.010051321 -0.058108483 4284566311
-0.027823627 -0.013959568 -0.058077987 4284697382
-0.027454555 -0.01786625 -0.05750281 4284696595
-0.027374923 -0.021640345 -0.057243142 4284828176
-0.027249992 -0.025354043 -0.056846637 4285222159
-0.02700001 -0.0035805702 -0.06059001 4280294181
-0.02715379 -0.0068337396 -0.061229285 4281808444
-0.027150035 -0.0099192075 -0.06139477 4282467915
-0.02699995 -0.013233017 -0.060809951 4281875522
-0.024428606 0.038109466 0.010207145 4287723067
-0.024068892 0.041349374 0.0061931498 4287400574
-0.02516669 0.039029807 0.0068395818 4287198023
-0.025000036 0.041506454 0.0035805665 4287664522
-0.025333345 0.025007114 -0.023759548 4288181283
-0.023833394 0.024638403 -0.026190128 4288180772
-0.025250018 0.023684258 -0.026743889 4288181025
-0.024999976 -0.042959012 -0.02692885 4287065158
-0.024111152 -0.045119248 -0.025616571 4287794556
-0.024500072 0.024655297 -0.030113507 4288114982
-0.026000023 0.023704492 -0.028998781 4288114979
-0.0255 -0.039481014 -0.031189293 4287194390
-0.024142861 -0.041431345 -0.030048758 4286997290
-0.023500025 0.024878386 -0.03509187 4288181035
-0.0255 0.022504093 -0.035323586 4288246566
-0.025250018 -0.039513953 -0.032864921 4287128343
-0.024347961 -0.041867837 -0.034347981 4286998588
-0.023000002 0.024617285 -0.036548547 4288181034
-0.024321377 0.021677043 -0.037799176 4288180517
-0.02549994 0.018884737 -0.038772736 4288443421
-0.025500059 -0.043027416 -0.036894102 4286869587
-0.024409175 -0.045918621 -0.037952717 4287467139
-0.023500085 0.020658579 -0.042143162 4288246051
-0.025000155 0.018395951 -0.041989479 4288443930
-0.025222242 -0.046723112 -0.042518508 4287401085
-0.02346164 0.02073377 -0.04625712 4288311586
-0.024888992 0.018061988 -0.045973811 4288509210
-0.026000023 0.015793936 -0.045852613 4288575252
-0.024600029 -0.045182824 -0.045144182 4287131982
-0.023250043 0.020898897 -0.049970325 4288311329
-0.0241943 0.018036522 -0.050027657 4288508955
-0.025235355 0.01487064 -0.050471555 4288575250
-0.025000036 -0.035419717 -0.051588897 4287654681
-0.024666727 -0.037921198 -0.051334109 4287588636
-0.023000002 0.020642359 -0.052489769 4288376867
-0.0230667 0.017531272 -0.053146023 4288509212
-0.023892939 0.013961945 -0.05361579 4287720985
-0.024800062 0.010382686 -0.054448191 4286674791
-0.025666654 0.0070963912 -0.055257495 4285423963
-0.0255 -0.030615687 -0.054713558 4287721232
-0.024172366 -0.034143515 -0.054088216 4287654680
-0.023440003 -0.037931651 -0.053579371 4287588635
-0.023000002 -0.040637687 -0.052821878 4287522589
-0.0233078 0.0096251741 -0.056947153 4286875014
-0.024235249 0.0062154755 -0.058075342 4285623148
-0.025454521 0.0024566501 -0.058541577 4285164142
-0.026000023 -0.001015991 -0.059401784 4284045149
-0.026000023 -0.018567532 -0.059153933 4283055921
-0.025642872 -0.022524416 -0.058882225 4283120426
-0.025391459 -0.026405588 -0.058446731 4282263313
-0.024000108 -0.029745147 -0.057829004 4285222162
-0.023000002 -0.032290347 -0.057006445 4287589402
-0.022999942 0.0055271946 -0.061474171 4284769388
-0.023777664 0.00214196 -0.062016491 4284507243
-0.024942875 -0.0017191656 -0.061925169 4284507499
-0.025578916 -0.0054360852 -0.062590301 4280624943
-0.026000023 -0.011629317 -0.062838644 4282797909
-0.025461674 -0.014553368 -0.062220898 4282337101
-0.024687529 -0.01807563 -0.061810728 4282271306
-0.024157941 -0.02196962 -0.061965305 4282205254
-0.023499906 -0.025884651 -0.06213716 4280953392
-0.023000002 -0.028618284 -0.060934816 4281081625
-0.022999942 0.01321304 -0.066248551 4285948995
-0.023000002 0.011698784 -0.067102551 4285816642
-0.023000062 0.0014001206 -0.064989135 4285100150
-0.023322463 -0.0020837374 -0.065878898 4284967016
-0.024416625 -0.0057495609 -0.065906063 4282203705
-0.025047958 -0.0099939257 -0.065815926 4282007354
-0.024600148 -0.013995953 -0.065879703 4282270271
-0.023777664 -0.017708369 -0.06599611 4282072635
-0.022999883 -0.02125274 -0.065658614 4282271047
-0.023000002 -0.024075516 -0.064445689 4283325024
-0.023000002 0.013023758 -0.06843099 4288379691
-0.023000002 -0.0032071769 -0.06843099 4287133763
-0.023357034 -0.006208241 -0.069825679 4287920420
-0.023666382 -0.0097773187 -0.069993302 4287328029
-0.023583233 -0.013755489 -0.070005625 4286802464
-0.023056984 -0.017729249 -0.070035756 4286605601
-0.023000002 -0.020431835 -0.068763107 4285554727
-0.023000002 -0.0068508498 -0.072416306 4288379156
-0.023000002 -0.0098320469 -0.072416306 4288247570
-0.023000062 -0.013656404 -0.072718218 4288116243
-0.023000002 -0.017166723 -0.072606072 4288050454
-0.022000015 0.026582677 -0.023335472 4288049450
-0.020555615 0.026219012 -0.025995478 4288180521
-0.02090919 -0.046174183 -0.026866615 4287334523
-0.019999981 0.02620675 -0.029373549 4288114731
-0.021600068 -0.042948648 -0.030620907 4286802501
-0.019636452 -0.045536265 -0.030001223 4287728765
-0.019000053 0.02851703 -0.035584003 4287787576
-0.021000087 0.026561426 -0.035568386 4287984174
-0.021500051 -0.043161392 -0.033025518 4286737483
-0.020266652 -0.045659788 -0.034044027 4287663230
-0.019000053 0.02851703 -0.036921196 4287787574
-0.020346224 0.025856007 -0.037822783 4288115244
-0.021999955 0.023027791 -0.039207913 4288180776
-0.021166682 -0.046861812 -0.036385767 4287270277
-0.02125001 -0.048178539 -0.037709814 4287402121
-0.019000053 0.02465881 -0.040837247 4288246315
-0.020681858 0.022564599 -0.04209869 4288246054
-0.022000015 -0.048069894 -0.043627482 4287335808
-0.019266725 0.024722725 -0.046118427 4288311846
-0.02128005 0.022621067 -0.045953427 4288311588
-0.020769298 -0.046765611 -0.046141099 4287200352
-0.020000041 -0.04835961 -0.044838022 4287532414
-0.019727349 0.025716193 -0.049966376 4288311589
-0.021700084 0.022792185 -0.050248425 4288377123
-0.020999968 -0.041949742 -0.051585894 4287391007
-0.019515216 0.025771491 -0.053756457 4288377125
-0.020931065 0.022055788 -0.054093618 4288377124
-0.021937609 0.018285848 -0.05469602 4287720222
-0.022000015 0.014306476 -0.05576944 4285881398
-0.022000015 -0.03546191 -0.055935759 4287720474
-0.022000015 -0.037950322 -0.055686269 4287588891
-0.020206928 -0.042295761 -0.054088671 4287391262
-0.019312561 0.021108294 -0.057274025 4288508968
-0.020257235 0.017941285 -0.057869952 4283510543
-0.021200001 0.013940772 -0.058034886 4284964447
-0.021809638 0.010126425 -0.05884352 4286546565
-0.022000015 -0.031314544 -0.059428643 4287458859
-0.021423221 -0.034078121 -0.058236685 4287589150
-0.020226002 -0.038065679 -0.058095578 4287523357
-0.019500077 -0.041345187 -0.057797473 4287523103
-0.019000053 0.020181371 -0.060322005 4288312630
-0.020093799 0.017576175 -0.061867069 4282066459
-0.021595538 0.013957556 -0.061977249 4282729804
-0.021894872 0.010058103 -0.062147554 4284309861
-0.022000134 0.0066167675 -0.06298025 4284310122
-0.021416783 -0.030138329 -0.062335458 4284567341
-0.019885719 -0.034107983 -0.061922643 4287327008
-0.019000053 -0.037834831 -0.061912816 4287392030
-0.019000053 -0.040835656 -0.060322005 4287457824
-0.019000053 0.020448113 -0.067141667 4288443174
-0.020588338 0.017730568 -0.066055357 4286274850
-0.022000134 0.015102768 -0.066048503 4284961316
-0.022000194 0.0098424088 -0.066157371 4286086522
-0.021971583 0.0060574673 -0.066204682 4285166454
-0.022000194 0.002335526 -0.066740423 4285692284
-0.022000015 -0.00055768341 -0.067379132 4286546565
-0.022000134 -0.022751831 -0.067041337 4282531376
-0.021733463 -0.025869168 -0.066064492 4282006070
-0.020399988 -0.030053332 -0.065856144 4284764460
-0.019666672 -0.034086697 -0.065910876 4287327008
-0.019277811 -0.038132876 -0.065965369 4287392284
-0.019000053 -0.041066498 -0.066493645 4287326491
-0.019777834 0.021391712 -0.070284799 4288443173
-0.021625161 0.018009672 -0.070061862 4288443427
-0.022000194 0.014173761 -0.070239946 4288641311
-0.021733403 0.0099799149 -0.069947243 4287065131
-0.02106452 0.005905211 -0.06998165 4286542938
-0.020533502 0.0019390061 -0.070124969 4286345046
-0.021464348 -0.0018926412 -0.070082158 4287000114
-0.021999955 -0.0046529137 -0.070857748 4287985695
-0.022000015 -0.01953603 -0.071903244 4288051232
-0.021827698 -0.021956544 -0.070277184 4286736670
-0.020399928 -0.026061177 -0.069858596 4287263265
-0.020055532 -0.030044682 -0.069860965 4287328033
-0.020500064 -0.033984788 -0.069794923 4287327007
-0.020166695 -0.038019389 -0.069844484 4287392029
-0.019000053 -0.041169077 -0.070016637 4287457565
-0.020312488 0.021785244 -0.073784009 4288508966
-0.022000194 0.017917125 -0.074134007 4288508963
-0.021363795 0.013855951 -0.073815897 4288640798
-0.020250022 0.0099065285 -0.073836342 4288707098
-0.019999981 0.0058999397 -0.07387431 4287852303
-0.019999981 0.001905378 -0.07387431 4287853075
-0.020277739 -0.0020696595 -0.073832065 4288115731
-0.021285832 -0.0058196895 -0.074081287 4288181260
-0.021916866 -0.0099207945 -0.074244887 4288115210
-0.022000194 -0.013895612 -0.074786276 4287720710
-0.021874964 -0.017059442 -0.07441774 4287589639
-0.020518661 -0.022440996 -0.073832378 4287524109
