# .PCD v0.7 - Point Cloud Data file format
VERSION 0.7
FIELDS x y z rgb
SIZE 4 4 4 4
TYPE F F F F
COUNT 1 1 1 1
WIDTH 1260
HEIGHT 1
VIEWPOINT 0 0 0 1 0 0 0
POINTS 1260
DATA ascii
0.0036690626 0.08099471 0.13918693 0
0.0061968546 0.080114663 0.11931832 0
0.067793302 0.001809299 0.21418814 0
0.0082048979 0.083821252 0.14265867 0
0.0063640531 0.079330042 0.22129679 0
0.023383122 -0.0012261309 0.00049954001 0
0.038296007 0.035922363 0.044116821 0
0.034241561 -0.04686093 0.027269119 0
0.049355626 -0.034469388 0.01588171 0
0.058905236 -0.016935248 0.20619646 0
0.011338789 0.056305107 0.23016444 0
0.04432673 -0.050625749 0.22736254 0
0.024776014 -0.060917027 0.15653045 0
0.061261877 -0.024115939 0.13429315 0
0.034586512 -0.05417075 0.14854655 0
0.0048483107 0.085649014 0.17086004 0
0.0029487219 0.082226232 0.098843008 0
0.052446797 -0.027225707 0.00889403 0
0.059623837 -0.015052571 0.21083626 0
0.066718385 -0.0079194233 0.18786103 0
0.043372534 -0.050469331 0.11811352 0
0.04122939 -0.044313081 0.0097475601 0
0.057623964 0.0044961013 0.16125061 0
0.003862733 0.081807151 0.1976328 0
0.02938653 -0.058976181 0.10127847 0
0.0056257471 0.0052943192 0.21614242 0
0.0078181531 -0.03489523 0.21755688 0
0.036311001 0.044310357 0.14582875 0
0.017899537 0.055805299 0.20825477 0
0.010532515 0.056430038 0.20795447 0
0.046075024 -0.044342004 0.17759998 0
0.050216779 -0.042215008 0.10856361 0
0.037370972 -0.057351369 0.22903986 0
0.050029561 0.022611085 0.044434849 0
0.015737323 0.055448335 0.21120137 0
0.017589359 0.046134468 0.041385949 0
0.00035387836 0.085841164 0.11854601 0
0.025155483 -0.063708708 0.15456754 0
0.049264804 -0.030704141 0.23223045 0
0.019836569 0.053811204 0.17550863 0
0.069954515 -0.0027007572 0.22796099 0
0.01175255 0.051018726 0.11904338 0
0.0065268036 0.085784242 0.10415126 0
0.0066141728 -0.063104033 0.062658399 0
0.057202421 -0.023528561 0.19834182 0
0.026385659 -0.032741152 -0.00021102 0
0.049412414 0.021298286 0.025071129 0
0.0082463454 0.023064401 0.2177442 0
0.060486361 0.013397351 0.13692711 0
0.015307372 0.034036722 -0.00092780002 0
0.047550544 -0.052992303 0.23080352 0
0.010652022 0.055102367 0.16591737 0
0.024929868 -0.062935695 0.13810585 0
0.027582208 0.045668345 0.13544507 0
0.044558495 -0.042118393 0.02625935 0
0.017393084 0.024146095 -0.00028234001 0
0.0063817445 0.052984681 0.13399826 0
0.05669792 0.0020634569 0.13306192 0
0.019216562 -0.064722389 0.19421132 0
0.0087668616 0.086105421 0.17167176 0
0.055308953 0.005412031 0.01323844 0
0.034939371 -0.013522209 0.22348265 0
0.0043532252 -0.032560579 0.2381513 0
0.026535133 0.046248313 0.098285399 0
0.0034497101 0.095873892 0.15502957 0
0.0058787074 0.080882654 0.14026555 0
0.0019647684 0.081412509 0.11404774 0
0.038928717 -0.027863018 0.23064649 0
0.055935189 0.0058489535 0.13028182 0
0.046778634 0.032442521 0.19033186 0
0.021918856 -0.060925256 0.12837186 0
0.066258058 -0.0061883703 0.17565247 0
0.0058289636 0.0095351357 0.00043566001 0
0.05381795 -0.032576036 0.19954795 0
0.050639525 -0.018689185 0.00072344998 0
0.014833795 -0.058974683 0.0074825599 0
0.062671512 -0.012877714 0.11836536 0
0.015027674 0.05961844 0.2245841 0
0.061064996 -0.023683384 0.12861541 0
0.0094738025 0.084963858 0.1633545 0
0.025810204 0.039967757 0.032757509 0
0.058289286 0.005483374 0.17992511 0
0.029826028 0.025637899 -0.00055134 0
0.057713315 -0.0044766031 0.03234433 0
0.0057459418 0.0549546 0.15673533 0
0.061285585 -0.0056637786 0.089687243 0
0.043031096 0.031152315 0.11484154 0
0.063716024 -0.022440091 0.16819371 0
0.0037616845 0.096169174 0.19133677 0
0.044251569 -0.035844937 0.23157173 0
0.0057880562 -0.029675545 0.23141336 0
0.040854082 -0.01352739 -0.00063229998 0
0.036968395 -0.052393839 0.15209612 0
0.032109275 0.046084624 0.13531601 0
0.048464332 -0.028760048 0.052981932 0
0.026541049 -0.0085168472 0.21734926 0
0.022813393 0.05643921 0.22457492 0
0.0569361 0.0091739539 0.057168979 0
0.022049638 -0.00065795705 0.00056953001 0
0.0090356637 -0.061384317 0.048774309 0
0.04302457 -0.045683593 0.048325282 0
0.031066587 0.036396135 0.23184672 0
0.052344449 0.011599679 0.087826222 0
0.032860272 0.03920437 0.037079912 0
0.04425624 -0.041341126 0.01350175 0
0.038562499 -0.04914609 0.043072071 0
0.030693378 -0.046113074 0.0028212201 0
0.026290948 -0.020606671 0.00021586999 0
0.06518124 0.00083963946 0.16433981 0
0.055918112 0.027073849 0.17039952 0
0.0074685421 -0.06635204 0.1466486 0
0.056516644 0.015332412 0.20907879 0
0.021116061 0.043653 0.01376231 0
0.047518123 -0.044743352 0.2320409 0
0.013731262 -0.062934928 0.10548853 0
0.040908527 -0.049559422 0.16650054 0
0.0080945566 -0.070152938 0.21925752 0
0.031188505 0.042546134 0.075376697 0
0.020045232 -0.02485811 0.23015863 0
0.0013708789 0.052699927 0.11859239 0
0.0087902881 0.048126046 0.064062767 0
0.046858661 -0.044868913 0.091187432 0
0.0028800834 -0.068649292 0.18654758 0
0.016838629 0.031848494 -0.00235953 0
0.026252626 0.032178205 0.23438182 0
0.05041185 -0.047225431 0.1709685 0
0.049670812 0.021357678 0.11509919 0
0.013417011 -0.062125091 0.059195999 0
0.050059117 0.019982874 0.02300051 0
0.040020972 0.031585161 0.07723283 0
0.019241674 0.0041191652 0.00047900001 0
0.00096627697 -0.066437475 0.13177036 0
0.0086500924 0.070873082 0.22425438 0
0.042386375 -0.0089561753 0.22905901 0
0.00049030595 0.073723748 0.090327479 0
0.0052494835 -0.080385283 0.21293779 0
0.004051419 0.074017256 0.20925553 0
0.010081461 0.056629013 0.19457832 0
0.021104734 -0.026560906 0.23112831 0
0.040229738 0.014346149 -0.0025825601 0
0.0054929946 -0.0048651006 0.00110238 0
0.04017878 0.035156783 0.1252472 0
0.011193557 -0.048426114 -0.0021929201 0
0.026573358 -0.062203448 0.13680425 0
0.007178301 0.095395297 0.15996115 0
0.00030488148 0.059152823 0.20518015 0
0.054898657 0.0076642986 0.017248459 0
0.068237402 -0.015184194 0.21911763 0
0.029398574 0.040118098 0.23160616 0
0.032916509 0.049593847 0.22978975 0
0.0088500064 -0.0101383 0.00093615003 0
0.031264275 0.040636986 0.044516351 0
0.0051678456 0.057004239 0.20284562 0
0.042270072 -0.039086681 0.046304852 0
0.048330992 -0.040052749 0.058251731 0
0.042458639 0.017374858 -0.00047381999 0
0.042095654 0.025002241 0.00200053 0
0.050063856 -0.048597474 0.18728007 0
0.026020957 0.0539199 0.23110168 0
0.0061054248 -0.038297605 5.1449999e-05 0
0.027745912 0.012551934 0.22103313 0
0.059674621 0.0077830255 0.09515059 0
0.0024911389 -0.056846842 0.23327874 0
0.050097257 -0.032787383 0.01282679 0
0.004479574 -0.068496719 0.17226288 0
0.050618082 -0.024803221 0.064732321 0
0.054910719 0.024927016 0.13792756 0
0.0071336571 0.050334353 0.082626723 0
0.036587328 -0.0089772996 0.22429572 0
0.0035238378 -0.061415143 0.03103897 0
0.026677599 -0.06024421 0.10214564 0
0.04704424 0.010703955 0.0054732598 0
0.028883232 0.045718905 0.14709967 0
0.053232804 -0.030287556 0.040332079 0
0.011281235 0.071150169 0.2232407 0
0.051942609 0.0084859096 0.064041533 0
0.064534664 -0.020245023 0.17327024 0
0.038373906 -0.012891825 0.22616039 0
0.00012794323 0.072131529 0.09342128 0
0.052655563 -0.0065608174 0.041500609 0
0.052772589 0.022752717 0.19064242 0
0.0087562166 0.057419162 0.23126473 0
0.031120218 -0.0040552486 0.21991296 0
0.008419076 -0.02821129 0.00068326999 0
0.046361096 0.015236143 0.01366011 0
0.057178684 -0.0067381375 0.02215445 0
0.004446933 0.099051848 0.17304325 0
0.05949948 -0.0072090812 0.18851253 0
0.052417055 0.014318511 0.10717614 0
0.0023339931 0.09884204 0.16627602 0
0.028190913 0.023707751 -0.00075370999 0
0.049615011 0.0063833408 0.016954631 0
0.048645183 0.042012766 0.22636606 0
0.058513477 -0.017783433 0.057814062 0
0.0055147503 0.055424888 0.16395901 0
0.015698448 0.018065128 5.6640001e-05 0
0.068309814 0.0062798932 0.23169424 0
0.02180505 0.0084054172 0.00027731 0
0.0056502577 0.096977606 0.14376973 0
0.023754707 -0.061962824 0.11198252 0
0.054607026 -0.00034491345 0.082414627 0
0.059677541 0.013422471 0.23154528 0
0.060273126 -0.032736294 0.17512518 0
0.0057632159 0.075248286 0.20691554 0
0.050992869 0.026301201 0.095258482 0
0.0060627367 0.031081833 -0.00067117001 0
0.044269755 -0.037831239 0.066029921 0
0.008796962 0.098792925 0.17685895 0
0.014283491 -0.067502528 0.21620296 0
0.0053187106 0.088107407 0.21270104 0
0.0025726352 -0.058001872 0.00226203 0
0.013646917 -0.062386367 0.093938351 0
0.0029487703 0.060275499 0.096278012 0
0.053101167 -0.032538973 0.17347892 0
0.010076376 0.075532779 0.089865781 0
0.041650526 -0.046585165 0.042734601 0
0.023546485 0.042470753 0.052466489 0
0.041087717 -0.048088748 0.056896489 0
0.046337862 0.02609254 0.10605406 0
0.0026571248 0.081955194 0.20234209 0
0.035045877 0.0050177295 0.21887736 0
0.056931064 0.023925561 0.15746807 0
0.0018795133 -0.080924094 0.20687591 0
0.015098924 0.045497436 0.01458784 0
0.012370441 0.04834174 0.081097998 0
0.052410983 0.024162296 0.20498508 0
0.0227859 -0.048322711 0.2292937 0
0.028075932 0.043945167 0.07233867 0
0.0072021279 -0.057784792 0.0031308001 0
0.045332529 0.034720767 0.2021113 0
0.055738807 -0.018606059 0.13156585 0
0.045641616 0.028438319 0.12205214 0
0.02886734 -0.055058811 0.091471769 0
0.014928224 0.048667427 0.077845089 0
0.015107097 0.045556594 0.01595738 0
0.0056389142 0.074078724 0.20747659 0
0.015043704 -0.063310117 0.089391552 0
0.024574554 -0.033722252 -0.00016303999 0
0.0067088287 -0.016335879 0.23908994 0
0.0099134073 0.045412991 0.01419096 0
0.047785044 0.026570559 0.051023319 0
0.05787199 -0.023751417 0.23017071 0
0.041722581 -0.04806184 0.2313967 0
0.0083847996 0.043424707 0.00318182 0
0.0016947482 0.093600929 0.13367772 0
0.0049635749 0.096635565 0.14025888 0
0.0088098925 0.095402002 0.14727634 0
0.052030683 -0.0055438904 0.031523351 0
0.053208783 0.0032136478 0.065669097 0
0.03817777 0.036363784 0.11611572 0
0.020987758 -0.016690169 0.00068686 0
0.039742734 0.039896313 0.18168168 0
0.0090667289 0.098309249 0.16206333 0
0.054759033 -0.025596842 0.15073386 0
0.043241963 -0.04764634 0.17518613 0
0.03912212 0.042705562 0.15022109 0
0.00617145 0.049550984 0.078018822 0
0.00013742037 0.074995413 0.094615899 0
0.034249879 -0.053456556 0.059971899 0
0.058063351 -0.013907215 0.1635906 0
0.010412036 -0.063214049 0.071950309 0
0.011756519 -0.075071707 0.20123 0
0.052893862 0.015725527 0.12763393 0
0.0021401402 0.093391836 0.11766175 0
0.062037453 0.021237634 0.21404618 0
0.018103169 -0.066091508 0.15887564 0
0.047576237 -0.038094126 0.12603913 0
0.046293676 0.044449229 0.2285393 0
0.040034994 0.037968431 0.15911794 0
0.00016424991 0.089017451 0.17663607 0
0.051816233 0.037517887 0.21925971 0
0.0071996599 0.062555745 0.20963532 0
0.042365022 -0.041669499 0.0045345998 0
0.017968586 -0.062760934 0.092276677 0
0.040655918 0.045893375 0.2113132 0
0.030480377 0.0054426529 -0.00011396 0
0.024923423 0.012288131 0.2358758 0
0.011846675 0.034598816 0.23496678 0
0.017963527 0.053187255 0.15791906 0
0.055460542 0.029099565 0.18555604 0
0.020841358 -0.059789255 0.05161221 0
0.026091719 0.045130935 0.11526726 0
0.05493167 -0.013361772 0.094676979 0
0.029417755 0.048743527 0.15448684 0
0.039453387 0.048496317 0.23137367 0
0.069320016 -0.0004240647 0.22424421 0
0.00017605908 0.091067567 0.18305749 0
0.0052124318 0.095869064 0.20348631 0
0.04246131 -0.03381297 0.23250405 0
0.0020585749 0.071937814 0.09257213 0
0.040090717 -0.045248799 0.0077649499 0
0.02007162 -0.0077048447 0.21373902 0
0.057239875 0.0097855069 0.065281741 0
0.006528357 0.055180099 0.16070686 0
0.040433198 0.039035574 0.17808443 0
0.055366755 0.017564613 0.084163412 0
0.00010366365 0.053694617 0.083367728 0
7.9121441e-05 0.070978567 0.095933318 0
0.039542608 0.042023677 0.14543934 0
0.0024924222 -0.076177374 0.20713276 0
0.032705441 -0.051991552 0.017546861 0
0.054444939 -0.037783056 0.12528704 0
0.051809266 0.033827022 0.18571565 0
0.024747895 0.051065814 0.19993104 0
0.011521954 0.039280251 0.00033363001 0
0.015499441 -0.067319527 0.17198139 0
0.023252362 0.016975123 0.2201717 0
0.022598848 0.0087376833 0.21716057 0
0.063171446 -0.0074312687 0.12177503 0
0.031048914 -0.062253907 0.17562518 0
0.048294082 0.030096252 0.18610629 0
0.037730038 0.036053825 0.10500044 0
0.0048383381 0.060181562 0.09788011 0
0.048794791 -0.021166516 0.0080633797 0
0.0033644494 0.097998962 0.15298459 0
0.0047543664 -0.061796155 0.042050522 0
0.009143414 0.057245772 0.2032465 0
0.039856173 -0.051592652 0.1858823 0
0.0099917073 -0.060961597 0.23200126 0
0.059727386 -0.011671454 0.20778306 0
0.053830013 0.031891398 0.1950939 0
0.05789189 -0.0062061734 0.03398918 0
0.027828364 -0.034803532 0.23227286 0
0.042463847 0.022060435 0.2301762 0
0.0053604841 -0.083480194 0.2163883 0
0.02434488 -0.057661202 0.08854387 0
0.015587592 -0.066192672 0.20313363 0
0.018219372 0.044542607 0.01224069 0
0.028076047 -0.063332319 0.17015998 0
0.010750113 -0.063894033 0.086516358 0
0.00021676905 0.052411426 0.11469168 0
0.0018967912 0.06265147 0.2245937 0
0.05956614 -0.017645437 0.076930411 0
0.0020553153 0.052071806 0.10727966 0
0.04019786 -0.044571847 0.23063385 0
0.056471586 -0.0050164871 0.0094264997 0
0.040716238 0.036905728 0.088912979 0
0.056481726 -0.027111055 0.22844385 0
0.0060520899 -0.064539507 0.091415852 0
0.053726427 -0.026795227 0.13843091 0
0.045309991 -0.048776124 0.22251768 0
0.025683956 0.03969733 0.027311919 0
0.062610626 -0.02852891 0.18811785 0
0.053920157 0.023386482 0.10950067 0
0.05679702 0.027389426 0.18980339 0
0.055787347 0.017869312 0.0929875 0
0.011024727 0.058271464 0.21650961 0
0.060199372 0.026252028 0.2197849 0
0.046650834 0.029251065 0.062731899 0
0.060947709 0.023026641 0.21260738 0
0.051757142 0.0057594869 0.2311812 0
0.0079312976 -0.059991837 0.23234442 0
0.044263475 0.028555777 0.23033158 0
0.030499199 0.044499051 0.14384222 0
0.064540669 -0.031975307 0.23176552 0
0.04350815 0.028662767 0.090313263 0
0.04581707 -0.03590665 0.071781121 0
0.058676749 -0.027315564 0.22977994 0
0.0023050997 0.086139858 0.20228688 0
0.034827441 0.0287305 0.00012179 0
0.060162455 -0.018504106 0.08990258 0
0.037964761 -0.055211235 0.12490869 0
0.0021713357 0.089478359 0.18749727 0
0.047037072 -0.038664639 0.12290576 0
0.0072003771 0.091077849 0.11735993 0
0.0047542863 -0.065635145 0.12252 0
0.049566526 -0.039665602 0.181908 0
0.010027235 0.097322062 0.15571873 0
0.010916179 -0.06074968 0.044355121 0
0.011845646 -0.067411348 0.20794193 0
0.005376434 0.047885504 0.047581609 0
0.0074281599 0.082819641 0.21949372 0
0.0050244462 0.092256188 0.12455781 0
0.0084918533 -0.024214573 0.22349744 0
0.0068442095 0.080168411 0.17357211 0
0.034461394 0.037203413 0.081122689 0
0.040195048 -0.045048639 0.089185573 0
0.052135006 0.031050861 0.15848182 0
0.00025586225 -0.01005076 0.0010770001 0
0.049398623 0.034040075 0.15607317 0
0.0068432074 0.082752392 0.13986482 0
0.057560798 -0.00081476942 0.14530972 0
0.0021418128 0.092220932 0.18204461 0
0.0087420475 -0.079522625 0.20406601 0
0.062959656 -0.0042886175 0.1191291 0
0.053893536 0.021812122 0.20841224 0
0.049944445 0.019945946 0.020623351 0
0.046658151 -0.043239102 0.070242271 0
0.057161421 -0.037599754 0.16643624 0
0.016891565 0.053497259 0.18155243 0
0.0055864602 0.055133309 0.16577442 0
0.0047219675 -0.075123601 0.20633334 0
0.024524676 0.043355662 0.076003723 0
0.0076409075 0.085253373 0.18377362 0
0.0031826124 0.046971049 0.02059783 0
0.015594935 -0.076699793 0.21399048 0
0.0086459536 0.072994694 0.20800497 0
0.059269965 -0.036370125 0.19995661 0
0.0074654575 -0.062087469 0.057199169 0
0.021772772 -0.05606072 0.033151358 0
0.029696716 0.0356954 0.0094154803 0
0.0038201418 0.052302647 0.11250269 0
0.050285771 -0.018388845 0.02322216 0
0.056534667 -0.013355982 0.12897073 0
0.030565767 -0.059711967 0.21124229 0
0.053409282 0.022125494 0.20435435 0
0.06050162 0.0084572118 0.11153496 0
0.0014149863 0.053582948 0.13304394 0
0.0042268056 0.073957875 0.089413121 0
0.057733156 0.014039468 0.097261898 0
0.05255387 0.03318939 0.18986723 0
0.052109897 0.0084923208 0.0030712499 0
0.0027532522 0.069866642 0.21903706 0
0.043864936 -0.045707487 0.06263721 0
0.033474326 0.040166825 0.05830526 0
0.03965757 0.039694197 0.17672296 0
0.060313672 -0.00084773824 0.078598768 0
0.067966521 0.0079410635 0.22389482 0
0.057812162 0.0047383886 0.16653326 0
0.031386126 -0.048343968 0.01199686 0
0.010920318 0.079561949 0.21919847 0
0.037578046 0.037550341 0.12381361 0
0.017082019 -0.061378371 0.23133896 0
0.030651985 -0.013117388 0.22022703 0
0.033511065 0.039333869 0.10332059 0
0.031020315 0.010584712 0.21817952 0
0.049792223 0.0054421835 0.01607327 0
0.037662316 0.020931069 0.23149332 0
0.057081051 0.0035060011 0.14589255 0
0.016017089 0.039379478 0.00026895001 0
0.014503805 0.049355786 0.1055457 0
0.058449671 -0.016087966 0.17955621 0
0.042143658 -0.037787132 0.029721869 0
0.02894211 -0.063165143 0.17360976 0
0.051066801 -0.050553072 0.22196209 0
0.013102971 -0.029222127 0.23809148 0
0.030439759 0.02807584 0.2344247 0
0.00035491027 0.089838758 0.14569004 0
0.012744227 0.0068630092 0.21435992 0
0.010946309 -0.056147259 0.0023372299 0
0.042242859 -0.050252311 0.22915468 0
0.054199427 0.011223422 0.02475748 0
0.053743735 0.0028049853 0.0032407099 0
0.056361243 -0.033105105 0.1140183 0
0.046032529 -0.035026126 0.066700481 0
0.019884596 -0.061983567 0.13169293 0
0.030089768 0.032781679 0.0029627299 0
0.039920468 -0.050884005 0.17189667 0
0.053089052 -0.0093364473 0.05014484 0
0.032030396 0.038039323 0.01024843 0
0.058089711 0.011447918 0.23039503 0
0.012007771 0.08467634 0.21786264 0
0.030828027 0.049967054 0.22054023 0
0.01667816 0.043300118 0.23196404 0
0.018411433 -0.063882336 0.11675617 0
0.018807033 -0.072533555 0.21380666 0
0.001918396 0.091530636 0.13605914 0
0.038562752 0.038680773 0.089874104 0
0.025637357 0.0058240443 0.21663994 0
0.0064091254 -0.069202848 0.19182914 0
0.012964742 -0.063322872 0.10896172 0
0.011250312 -0.042561043 -0.00038821 0
0.019864259 0.046622936 0.062946163 0
0.041711815 0.040547475 0.14780773 0
0.05043225 0.036444847 0.20387164 0
0.041227475 -0.056310829 0.1804077 0
0.046856418 0.026743669 0.12246926 0
0.0052143205 0.029502518 0.23113225 0
0.029763127 0.05053224 0.18556921 0
0.033006482 0.045171451 0.17737021 0
0.026795877 0.038253367 0.00262043 0
0.053072691 -0.04553476 0.20105299 0
0.022471713 0.051691893 0.1553341 0
0.038510833 -0.048492227 0.11331912 0
0.0093671288 -0.0068258215 0.0010999 0
0.0098421071 -0.033490911 0.00033777999 0
0.0074851979 0.053311128 0.1319828 0
0.0052969363 0.084774628 0.15435287 0
0.011287676 0.05443364 0.1711913 0
0.055980116 0.013925333 0.17663451 0
0.013597162 0.048268881 0.23088637 0
0.041440621 -0.028779607 0.22709388 0
0.055052578 0.013611708 0.05216017 0
0.066383988 0.013232443 0.22285447 0
0.033313982 0.048676636 0.22352041 0
0.061908275 0.0030925199 0.11410403 0
0.0058788471 0.05380616 0.14655894 0
0.065954603 -0.010534432 0.22774699 0
0.054475754 -0.007420443 0.00299065 0
0.027451562 -0.054674614 0.01123479 0
0.001138933 0.054631826 0.22819582 0
0.0064084381 -0.0076827202 0.00111827 0
0.0023229774 0.02101066 0.22828002 0
0.01661746 0.053404491 0.22662959 0
0.023915319 -0.063075498 0.13395901 0
0.062676534 -0.028300844 0.18736054 0
0.055798411 -0.027783759 0.064070068 0
0.063875377 -0.019455343 0.15770623 0
0.00034695491 0.013984494 0.22714587 0
0.020855529 -0.02273915 0.21930499 0
0.015238537 -0.023195209 0.23766731 0
0.037893053 0.040547941 0.16716418 0
0.003594121 -0.0043086 0.00089214998 0
0.02148206 0.049914908 0.12240962 0
0.053286411 -0.036080178 0.090962969 0
0.048808172 -0.040710863 0.18015663 0
0.0076673534 0.082467288 0.15739404 0
0.035805263 -0.050713159 0.03238979 0
0.00030176342 -0.062112331 0.03886386 0
0.00077308156 0.082627282 0.13074182 0
0.056925923 0.0053747557 0.23154785 0
0.049515367 0.021688867 0.030140551 0
0.033958837 -0.050218128 0.0068078502 0
0.010516655 -0.0066767335 0.2202047 0
0.033614166 -0.029833009 0.22777963 0
0.02595569 0.055279728 0.22383074 0
0.041451249 -0.0062296791 0.2282012 0
0.0099618528 -0.011241687 0.23860045 0
0.00027792342 0.094270408 0.17847772 0
0.050271511 0.018846877 0.10358539 0
0.059834331 0.011566184 0.11628961 0
0.052790567 0.022450957 0.084429562 0
0.048960477 -0.041065574 0.075972266 0
0.012031324 0.059179399 0.22736716 0
0.03062802 -0.0072006863 0.00030856999 0
0.05536861 -0.0024790689 0.094572231 0
0.018134305 0.030048165 -0.00081848999 0
0.055446282 0.02262472 0.12565048 0
0.027050229 0.051746134 0.18599236 0
0.050497867 -0.016802873 0.0212486 0
0.010884212 0.050853249 0.11304757 0
0.05752968 0.021590967 0.1477921 0
0.0018770155 0.09602949 0.16063017 0
0.03154574 0.036288705 0.03531304 0
0.055163421 -0.028140467 0.1782527 0
0.033526599 0.044223692 0.12092581 0
0.0069065969 -0.06469845 0.10958073 0
0.055324167 -0.030929532 0.23066206 0
0.00040807389 0.092283383 0.14100039 0
0.0036686659 0.0056683365 0.22879969 0
0.0048705619 0.095060781 0.12726162 0
0.021929247 -0.058248695 0.031274471 0
0.025876062 -0.02089178 0.00034562999 0
0.059216551 -0.027788632 0.12143532 0
0.045783803 0.026409119 0.02403976 0
0.058403634 0.020910095 0.15511845 0
0.053807989 0.020309072 0.18575138 0
0.0091048423 0.056186419 0.18105194 0
0.040450804 -0.041613646 0.047414958 0
0.023196558 -0.026584145 0.000283 0
0.019480998 0.051145639 0.13216065 0
0.0042252634 -0.03457598 0.23109454 0
0.010887096 0.051566366 0.22967748 0
0.00016045384 0.089211032 0.19409098 0
0.05598405 -0.035137292 0.12515973 0
0.034667253 0.047834631 0.22472566 0
0.061120994 -0.016035635 0.099086799 0
0.03100469 -0.061456796 0.2268135 0
0.042471454 0.038297951 0.2058915 0
0.00094829313 0.068648651 0.22146931 0
0.027140902 -0.060786184 0.11537735 0
0.068026327 -0.0012824126 0.21333668 0
0.01047197 -0.068204314 0.22494826 0
0.0063333903 0.051595528 0.11137862 0
0.058314227 0.028860327 0.21780545 0
0.058769464 0.0018147156 0.17845026 0
0.024153814 -0.055399019 0.043950681 0
0.032047927 -0.0226181 -0.00034535999 0
0.0059232879 0.052446786 0.095475838 0
0.024790676 0.054574255 0.23127992 0
0.053197347 -0.036534175 0.2176047 0
0.013476156 0.045793179 0.039463241 0
0.02030156 -0.06978476 0.22223683 0
0.056508929 -0.0074580275 0.00960394 0
0.003347097 0.053415243 0.13510118 0
0.0154496 0.01108874 0.00029125001 0
0.053189963 -0.025770608 0.01080503 0
0.0085801743 0.059040945 0.22476837 0
0.021646695 -0.060957119 0.22954275 0
0.021974284 -0.050218705 0.23334126 0
0.0050239395 0.033587202 -0.00099993998 0
0.0041319989 0.067247331 0.22355175 0
0.025105122 -0.024353044 0.00016493 0
0.046582885 -0.036536261 0.091390543 0
0.022744818 0.028724622 0.22664419 0
0.026513379 -0.061049353 0.17858471 0
0.039467439 0.046475913 0.20959236 0
0.055195458 -0.023503443 0.14582445 0
0.00036028586 0.093239918 0.2092175 0
0.00218671 0.048799653 0.050689831 0
0.0043349527 0.057804633 0.20963292 0
0.049311087 -0.018119289 0.0069915899 0
0.0032227356 -0.067728236 0.15651225 0
0.036009923 0.0455538 0.16013508 0
0.0019692872 0.08342354 0.10871049 0
0.0055840779 -0.066266254 0.12735377 0
0.051151797 0.019796718 0.03780669 0
0.045539893 0.028693195 0.046204101 0
0.055306688 0.012003735 0.22909646 0
0.05204238 -0.035528831 0.1841329 0
0.061671972 -0.028157458 0.16576095 0
0.010039097 -0.071096785 0.2248611 0
0.050876662 -0.044158429 0.13944583 0
0.032601863 -0.057449337 0.1048571 0
0.041826002 -0.04967805 0.18666467 0
0.016604947 -0.019083856 0.00079045998 0
0.045191996 0.044473413 0.22390381 0
0.027274068 -0.057571921 0.11858108 0
0.028606812 -0.063699439 0.1830482 0
0.031774156 0.038648251 0.072686069 0
0.054074019 0.030182924 0.2270131 0
0.044377852 0.021989927 0.03730005 0
0.056144252 -0.029579002 0.082491621 0
0.049015447 0.037129927 0.19031198 0
0.052396193 0.01936489 0.052030809 0
0.0061356854 0.02252771 0.21717049 0
0.027079539 -0.060068239 0.16457173 0
0.0060637984 -0.07744363 0.2198692 0
0.059249051 -0.0080814101 0.054738369 0
0.06435369 0.016643185 0.21655682 0
0.022606578 -0.025693035 0.2212429 0
0.06075839 -0.033275161 0.19505115 0
2.2826716e-05 0.06244516 0.084121197 0
0.017842205 -0.060375586 0.082557008 0
0.040955707 0.036742836 0.089442082 0
0.057702161 0.011512689 0.08195927 0
0.058172166 0.027505059 0.22912703 0
0.0026621725 0.061049473 0.095715582 0
0.043587714 0.040028386 0.16019014 0
0.00453371 0.023321278 0.23509274 0
0.045147121 0.025674161 0.083983891 0
0.018702896 -0.0026564188 0.22437729 0
0.0019349884 0.089446932 0.13298321 0
0.039387226 -0.0084712133 0.22651027 0
0.0082694199 -0.069073811 0.19786644 0
0.0081956144 0.049439337 0.06931302 0
0.018081397 0.020773821 0.21951829 0
0.0036212932 -0.074778765 0.19966452 0
0.063757166 -0.020432923 0.16001245 0
0.0010373313 0.073390156 0.089393988 0
0.028332079 0.006070504 0.21624991 0
0.0031022113 0.096187249 0.17511842 0
0.012152212 -0.06356436 0.084275462 0
0.0067849178 0.094628796 0.12516022 0
0.021964317 -0.065787882 0.2279703 0
0.027951289 0.043321211 0.10527587 0
0.0080475751 0.084672838 0.18801454 0
0.055404834 0.019829404 0.10194441 0
0.057474971 0.021826096 0.14883044 0
0.06682165 -0.018595081 0.21230054 0
0.061414376 -0.0014353134 0.096273869 0
0.029047869 -0.0045961253 0.00018059 0
0.016358297 -0.064200625 0.1488407 0
0.05478603 0.012352884 0.14103204 0
0.066486053 -0.009097103 0.1816534 0
0.0006838236 0.085065931 0.150792 0
0.065026857 -0.010159936 0.1555915 0
0.017898237 -0.059373554 0.23198216 0
0.048590764 0.003288446 0.0043050698 0
0.022248896 0.044084471 0.03111686 0
0.0042421166 0.08364068 0.097220667 0
0.024275454 0.053020384 0.19115336 0
0.0043243188 0.05784383 0.22691619 0
0.0033052508 0.055081736 0.15732761 0
0.030171635 -0.037570179 0.22497033 0
0.0081136469 0.067331389 0.21029681 0
0.018789511 0.048737351 0.11897825 0
0.050118595 -0.032127947 0.1123221 0
0.049404286 0.026896913 0.1661685 0
0.031114858 -0.036499538 -0.00083571998 0
0.00056119449 -0.068485878 0.17345296 0
0.014884876 -0.061189629 0.046380501 0
0.031739071 0.041441817 0.11388947 0
0.063980877 0.0081410371 0.1669708 0
0.042614169 0.039321434 0.22865269 0
0.022738041 0.031620402 0.23490074 0
0.013760975 -0.06159173 0.049630709 0
0.059194632 0.012192298 0.10939482 0
0.033786915 -0.023695666 0.22532032 0
0.045009695 -0.033985436 0.23164529 0
0.010966146 0.079272062 0.22109006 0
0.056879103 0.0033578388 0.03342621 0
0.043082222 -0.00020958856 0.22977231 0
0.010270005 0.097314849 0.16415665 0
0.049449302 0.018169362 0.083272681 0
0.063802011 -0.033976112 0.22998732 0
0.0011495259 0.049778033 0.069731109 0
0.036733732 -0.059730653 0.19613148 0
0.060848556 -0.032646544 0.187874 0
0.0035692062 0.034780029 0.22505388 0
0.0074475333 -0.041063286 -0.00017201999 0
0.015161635 0.051466312 0.14200377 0
0.0076032635 0.0821843 0.17250687 0
0.048973091 0.038063791 0.20524079 0
0.028066212 0.029442705 -0.0012247 0
0.058231801 -0.0042552352 0.040638719 0
5.3865835e-05 0.088933527 0.18170416 0
0.054059282 -0.038998343 0.1314835 0
0.017326815 -0.063365012 0.10073076 0
0.024462538 0.048488703 0.11847502 0
0.055958681 0.00026847236 0.11353431 0
0.067528412 -0.020613939 0.23202495 0
0.0078777242 0.093096301 0.12725139 0
0.023004709 0.052216213 0.20582183 0
0.017192891 -0.058942702 0.01658991 0
0.052252084 0.0015013795 0.045648731 0
0.018453637 -0.072287634 0.21961571 0
0.00026314147 0.072139993 0.22393999 0
0.039950516 -0.041821148 0.042189699 0
0.038510069 0.038653396 0.15001626 0
0.0050002951 0.0472725 0.02386361 0
0.050279364 0.025407281 0.075482309 0
0.042985968 0.032014731 0.12445898 0
0.011397937 -0.062374659 0.057848439 0
0.042631112 -0.054495934 0.16886127 0
0.0078471992 0.09798193 0.15479892 0
0.04715611 0.029518399 0.15827504 0
0.00038073398 0.094164386 0.12153051 0
0.0061697122 0.084099367 0.14343402 0
0.0063182991 -0.06706965 0.15789075 0
0.066643134 0.0067056715 0.22896373 0
0.060393378 0.021158908 0.19040979 0
0.014271168 -0.061168429 0.072907276 0
0.055779673 -0.0024602823 0.10300041 0
0.06313853 -0.00046950951 0.1270619 0
0.047801584 0.030162912 0.23015262 0
0.033428043 -0.032020748 0.22354533 0
0.0038596746 0.036460098 0.22636174 0
0.035236023 -0.055545285 0.18761668 0
0.035496667 0.030745137 0.23226669 0
0.0064228121 0.081658736 0.14226753 0
0.063506112 0.019252863 0.23150937 0
0.0043941904 0.098413438 0.16003112 0
0.00090599433 0.030261461 0.22143292 0
0.038934022 -0.046602719 0.00961076 0
0.058662139 0.009419648 0.086406611 0
0.0072307233 0.098932073 0.18397185 0
0.059338134 -0.0020042639 0.18627897 0
0.018424058 0.051523436 0.15936698 0
0.056630239 0.00016946346 0.12665741 0
0.050108887 -0.037755206 0.058389299 0
0.065939866 -0.015764557 0.18576436 0
0.030295236 0.046717789 0.17384648 0
0.057056755 -0.0088447593 0.019053871 0
0.0047774799 0.048253451 0.05375177 0
0.0561563 0.027992833 0.18367997 0
0.00020941533 -0.065277994 0.10647412 0
0.0048928857 0.056458224 0.18850818 0
0.055326834 -0.029793946 0.20741896 0
0.04691194 -0.048115958 0.13302779 0
0.0029992778 0.0057312623 0.2326915 0
0.005031785 0.08195734 0.18772046 0
0.052268676 0.018281076 0.13524301 0
0.051973309 -0.010711115 0.23200856 0
0.064005524 -0.020790491 0.16611707 0
0.0019989628 0.092572391 0.15709792 0
0.056266546 -0.015392296 0.016752061 0
0.0062724929 -0.067883886 0.22513273 0
0.034031697 0.03222122 0.01209014 0
0.055560648 -0.02130504 0.14022882 0
0.03503681 0.042075787 0.10351647 0
0.013248248 -0.070708431 0.2266423 0
0.032761067 -0.055733573 0.079444773 0
0.014798703 -0.059484184 0.2321886 0
0.037203044 -0.047824569 0.0072224899 0
0.026320802 0.041627437 0.01686967 0
0.0020212885 0.084271014 0.10962225 0
0.015069691 -0.064754471 0.15134436 0
0.055974238 -0.012635011 0.11355047 0
0.032300606 0.049872275 0.22849412 0
0.051013172 -0.051094323 0.22490814 0
0.038441263 -0.037836947 -0.00035136001 0
0.030111691 -0.060722128 0.13848291 0
0.0065835398 0.0024512336 0.2176657 0
0.034385119 0.042275224 0.15156676 0
0.038915504 -0.024675546 0.22943778 0
0.050719589 0.030119568 0.13143355 0
0.0042306576 0.074622169 0.08755073 0
0.0033437107 -0.059710346 0.00498165 0
0.043706596 0.026639756 0.073521398 0
0.027147913 0.017813105 -0.00030829001 0
0.056273475 -0.0046783052 0.11298644 0
0.021180982 0.00027216598 0.00054386997 0
0.049522482 -0.0033523664 0.23267645 0
0.0021276753 0.095575914 0.17657456 0
0.0077965278 0.053381894 0.13337734 0
0.014816908 -0.021814743 0.21423236 0
0.041446559 -0.050246391 0.19516654 0
0.053736709 0.016642313 0.15102635 0
0.012646733 -0.010556467 0.00093477999 0
0.0089648385 0.017126333 0.00015189 0
0.03177955 -0.05037722 0.047782909 0
0.037216991 0.037501954 0.05360144 0
0.055623688 -0.026158942 0.17276888 0
0.028263872 -0.056131389 0.10287879 0
0.0086319987 0.049312603 0.23079281 0
0.053250052 0.018320139 0.23106366 0
0.039883606 -0.0064124214 -0.0025261501 0
0.019105982 -0.0012198947 0.00069388998 0
0.00013475306 0.087372452 0.19084188 0
0.001990309 0.088919133 0.15320574 0
0.031261265 0.004797956 2.779e-05 0
0.051365823 -0.034064468 0.15401512 0
0.035132822 0.042202078 0.15826568 0
0.036321074 0.039523929 0.077863008 0
0.0049206596 -0.017202485 0.00098835002 0
0.0033805314 0.064013675 0.22236326 0
0.054249518 -0.011380929 0.076208852 0
0.037902333 0.031436671 0.047803368 0
0.04244744 0.01157489 0.23167253 0
0.011718381 0.058494393 0.23053113 0
0.040252849 0.023810677 0.23084867 0
0.062525317 -0.018344689 0.13019975 0
0.040486757 0.040676463 0.20874822 0
0.050843604 -0.0030498467 0.22942115 0
0.012900179 -0.064663976 0.10830631 0
0.0080521312 -0.058911309 0.23258144 0
0.060192831 -0.0011470206 0.07655149 0
0.034188218 -0.060656425 0.17651518 0
0.030697627 -0.01113409 0.21611074 0
0.010158876 0.052863147 0.12900153 0
0.0073122811 0.095160723 0.12878951 0
0.04654476 0.04275002 0.22017559 0
0.064641759 -0.022076525 0.18594642 0
0.022704246 0.047584679 0.12627871 0
0.047109649 0.037633836 0.16996995 0
0.0039795768 -0.064086571 0.08792454 0
0.02658668 0.043226454 0.047611099 0
0.055454701 0.017814957 0.20710684 0
0.0075584818 -0.068782277 0.18486489 0
0.026870491 -0.059945311 0.15897661 0
0.012102904 0.051959667 0.13596934 0
0.045894273 0.017324712 0.022133039 0
0.024633037 0.039849605 0.020050829 0
0.043884844 0.0075885355 0.22571895 0
0.022295842 0.05309565 0.17614856 0
0.012086751 -0.068633601 0.21725576 0
0.027514465 0.040794566 0.061767738 0
0.0022739638 0.074510455 0.087151602 0
0.021968752 -0.027736001 0.23105437 0
0.038746245 0.031388845 0.05779127 0
0.048325695 -0.035905026 0.11570751 0
0.0025944393 0.039164506 0.22838026 0
0.033461019 0.023915622 -4.585e-05 0
0.017384121 0.00071674213 0.21469302 0
0.035103522 0.036784139 0.23151103 0
0.03606914 -0.055674393 0.20993504 0
0.0030371156 0.047533531 0.03584319 0
0.016318379 -0.067807771 0.19264518 0
0.0021773912 0.056067806 0.22701776 0
0.064647794 0.017093651 0.22007018 0
0.038893513 -0.0085321944 0.22020839 0
0.0043615494 -0.086868197 0.21010226 0
0.0045969412 0.053932797 0.099482968 0
0.020540142 -0.0049172975 0.21425416 0
0.010047717 0.048317667 0.056333572 0
0.018778717 -0.059175592 0.06679596 0
0.0078122448 -0.019076211 0.00103052 0
0.015121154 -0.068287998 0.22963309 0
0.052717328 -0.023853444 0.09846323 0
0.054932073 -0.042335164 0.18148088 0
0.051008299 -0.035693619 0.16449371 0
0.049016215 -0.040302809 0.17887105 0
0.04445219 0.035999559 0.12090113 0
0.0081229452 -0.025973059 0.00083472999 0
0.054420859 0.0019493029 0.23093919 0
0.052989483 0.023635764 0.098246001 0
2.0915642e-05 -0.0859797 0.2125081 0
0.02803712 -0.034796461 0.23197708 0
0.050810218 0.017282706 0.01090393 0
0.05249469 0.01477227 0.01876062 0
0.0037850123 -0.036685571 0.00020472999 0
0.014972521 -0.06360203 0.12628508 0
0.01300573 -0.022527376 0.00081465999 0
0.048715927 -0.049039669 0.17016803 0
0.0076707806 -0.060406305 0.02418986 0
0.051188651 0.0029225368 0.031294011 0
0.047587872 -0.047074385 0.12848143 0
0.032700427 0.037772797 0.01205984 0
0.046319313 0.039693404 0.18991441 0
0.022821857 -0.065446824 0.17312138 0
0.04679215 -0.030920872 0.04044082 0
0.054877967 -0.03974925 0.15140001 0
0.007858621 0.061541755 0.08042565 0
0.030191118 0.054466102 0.2301067 0
0.048639782 0.029072028 0.17691328 0
0.035383828 0.044703539 0.20443322 0
0.016929945 -0.062435258 0.080682479 0
0.0022769738 0.068295136 0.082553104 0
0.027826197 -0.061701354 0.2140431 0
0.051376522 0.005261777 0.041630689 0
0.0185978 -0.056480009 0.01594938 0
0.035023451 0.044894982 0.14274767 0
0.015959514 0.04774585 0.088695608 0
0.06641224 0.0030564442 0.199176 0
0.013198785 -0.018438114 0.00089026999 0
0.006681731 0.075548828 0.22091863 0
0.0068920348 0.083185598 0.19130784 0
0.0060326029 0.07236959 0.20792583 0
0.011705177 -0.063901693 0.11384637 0
0.0044825096 -0.059786614 0.00692769 0
0.0098070931 0.079425856 0.20378494 0
0.031280003 -0.037747327 -0.00063020003 0
0.057652138 -0.013511937 0.03302421 0
0.040661581 -0.015200536 -0.00107218 0
0.0027096588 0.082304224 0.1959978 0
0.048670128 0.037350077 0.22648966 0
0.011473289 -0.064490072 0.10075131 0
0.015920352 0.05119079 0.14108585 0
0.024993816 0.045339424 0.07327722 0
0.028527671 0.052774031 0.21279152 0
0.0038885996 -0.063551649 0.076531641 0
0.02248021 -0.065228574 0.16593784 0
0.048966337 0.010100309 0.02392976 0
0.03233695 0.039546054 0.092183173 0
0.012690371 -0.034960452 0.21758141 0
0.026193721 0.04611377 0.093896821 0
0.0048218165 0.08102569 0.18532544 0
0.042513818 0.036656007 0.17477769 0
0.01961619 0.028056372 -0.0022235599 0
0.0085757021 0.094189972 0.12344843 0
0.0082295332 -0.067203432 0.19786946 0
0.012377987 0.068174168 0.22326517 0
0.034938738 -0.059781495 0.1684441 0
0.051315986 0.01791798 0.11436625 0
0.013549583 -0.0028390326 0.00077729003 0
0.05988498 0.022438865 0.19442464 0
0.023983704 0.047468092 0.10095084 0
0.015194396 0.05265509 0.13884845 0
0.034028813 -0.053801622 0.06305927 0
0.010544891 0.087980121 0.21299329 0
0.015574357 -0.019814473 0.21398699 0
0.00071947463 -0.042572133 0.23606557 0
0.01511691 -0.064851165 0.12045378 0
0.0047294479 -0.061595626 0.02879742 0
0.022626555 -0.058952108 0.048825558 0
0.0083698127 0.050315637 0.23044966 0
0.041382991 -0.026289888 0.22605322 0
0.048601113 0.017059121 0.060191941 0
0.013963202 -0.071086884 0.21117198 0
0.044331305 -0.044729885 0.056158319 0
0.0018201768 -0.021444254 0.0010405401 0
0.052501947 0.014355477 0.10908701 0
0.05918391 -0.015230767 0.061870482 0
0.021676214 0.048564103 0.13434593 0
0.045606256 0.0032547619 0.22618219 0
9.4160438e-05 -0.066341281 0.12813108 0
0.0038977917 0.092608944 0.21019481 0
0.025360864 -0.058815639 0.12165136 0
0.0049587321 0.085965484 0.1846178 0
0.021125825 0.039995018 0.0018615799 0
0.021683207 -0.065422893 0.16527881 0
0.0020311493 -0.043387979 0.23025018 0
0.063635841 -0.00071584433 0.13495158 0
0.019924836 0.056449387 0.23135889 0
0.064651705 0.014927067 0.23101377 0
0.0072722714 -0.027984552 0.22212422 0
0.00047014281 0.019918956 0.21830235 0
0.018799534 -0.064910881 0.20014542 0
0.023691319 -0.011656513 0.21650007 0
0.0028998069 0.045833703 0.0066821901 0
0.02888589 -0.050617289 0.016495829 0
0.0065879654 -0.062516659 0.04976869 0
0.061293259 0.0034086518 0.23235337 0
0.00014759041 -0.078788824 0.20609178 0
0.050269645 -0.039619997 0.20779967 0
0.00097689033 0.060045239 0.22308573 0
0.024523063 -0.066293225 0.21320546 0
0.051264983 0.011301827 0.066712372 0
0.065758303 -0.022177737 0.20999172 0
0.048760086 0.033254556 0.14017572 0
0.051343303 -0.030590372 0.12192756 0
0.016522909 -0.0071013682 0.2225102 0
0.029652795 0.038547318 0.049349658 0
0.05713252 0.012710679 0.2054434 0
0.031330682 0.050828155 0.20774312 0
0.018485185 -0.065278828 0.20698111 0
0.015911873 0.03314244 -0.00115816 0
0.013255822 -0.013589986 0.22300698 0
0.061092421 -0.010219414 0.087590173 0
0.047838844 0.022664186 0.23050389 0
0.028862692 -0.058368471 0.1516493 0
0.051636457 -0.030784301 0.020370349 0
0.037079554 -0.050436102 0.12207557 0
0.056645013 0.012920167 0.072729498 0
0.024747331 -0.055455491 0.05046675 0
0.053862199 0.018359505 0.16693985 0
0.048938356 0.025435362 0.054615211 0
0.0022562724 0.084562644 0.21839049 0
0.055745944 -0.016825449 0.12288968 0
0.020549122 0.038341843 0.0023453501 0
0.0667101 -0.010289196 0.19013026 0
0.047413066 -0.029224161 0.037580028 0
0.023204794 -0.059322793 0.10935235 0
0.062614247 -0.012029171 0.11626834 0
0.012345081 -0.063489586 0.08346533 0
0.0049497057 0.067824468 0.20855483 0
0.031813953 -0.0053363293 0.22036429 0
0.024203578 -0.060301792 0.13841145 0
0.0091800895 0.051926594 0.12515442 0
0.038056422 -0.053262185 0.18857351 0
0.027822038 -0.059534155 0.16209969 0
0.012889339 -0.051569123 0.23424885 0
0.013927648 0.068786174 0.22463869 0
0.0021248739 0.096018463 0.16471794 0
0.0074510071 0.083078369 0.19421813 0
0.056170043 0.015281029 0.20216532 0
0.019287085 0.04388034 0.0421401 0
0.010881836 0.068939671 0.22335839 0
0.047764264 -0.025566261 0.01526217 0
0.021608548 0.043842975 0.021856951 0
0.036266483 0.039412316 0.073358737 0
0.052066177 -0.03538524 0.18263796 0
0.049329586 0.020913552 0.01971045 0
0.0040412042 0.049039233 0.059788469 0
0.057296947 -0.012409627 0.025988819 0
0.0075446814 0.012409385 0.21450575 0
0.00087585114 0.084410176 0.19725189 0
0.025051631 0.044113528 0.092790551 0
0.0026954357 0.064386338 0.21281116 0
0.03273879 -0.051552821 0.07874386 0
0.028510127 0.039852791 0.057701439 0
0.03525918 -0.047577076 0.05170694 0
0.0062605161 0.063342154 0.081649117 0
0.021810673 0.010768987 0.00021256 0
0.021744413 0.050782155 0.13758519 0
0.025618194 -0.060382407 0.15463884 0
0.010197515 0.097760424 0.16586065 0
0.0069841836 0.05508453 0.076257862 0
0.059603289 -0.00081719831 0.065018862 0
0.055284034 -0.032517269 0.21835767 0
0.023627104 -0.068431437 0.22123761 0
0.0031838585 0.054462191 0.095848873 0
0.05927521 0.014191132 0.12237611 0
0.00010771491 0.07393381 0.095940039 0
0.058668651 -0.030569844 0.13168424 0
0.059603035 -0.0091713965 0.060819801 0
0.023475958 0.051669311 0.19954836 0
0.01516551 0.0079702288 0.00042145001 0
0.045062385 -0.026342805 0.23266935 0
0.032451816 0.037424926 0.23127587 0
0.052789398 -0.0081252595 0.044150509 0
0.0015538242 0.065078139 0.099976972 0
0.017796086 -0.018822793 0.214074 0
0.0023995731 -0.064958744 0.23028955 0
0.0084263217 0.046837922 0.020217109 0
0.056262046 -0.025873017 0.18720835 0
0.058264572 -4.2878091e-06 0.16251911 0
0.0032209251 -0.041362926 -0.00014001 0
0.017162459 -0.051841967 -0.000451 0
0.0032602083 0.084856153 0.1520901 0
0.020590881 0.054113861 0.18746889 0
0.0056446847 -0.0015002582 0.00099689001 0
0.054110914 0.0051821414 0.091454282 0
0.015077825 -0.06544818 0.1664075 0
0.067488685 -0.024529263 0.22945139 0
0.039408728 -0.018454617 0.2280435 0
0.050030552 0.014536634 0.066096872 0
0.013906728 -0.0003212709 0.21398173 0
0.030366315 0.039936353 0.07671345 0
0.054656073 -0.010581514 0.082627691 0
0.058989804 0.00055087171 0.18067014 0
0.05133646 -0.044872366 0.1553272 0
0.035084959 -0.050049018 0.087075971 0
0.018150806 0.036108103 0.22973633 0
0.055179507 0.0028287638 0.10436484 0
0.042989336 0.028523948 0.081771418 0
0.0078062844 -0.052675713 -0.00048700001 0
0.058193877 0.0050907284 0.059199478 0
0.054758139 0.023225024 0.12059482 0
0.056428112 -0.0138392 0.2320426 0
0.034871921 -0.0044598151 0.21769357 0
0.0054853093 0.083169028 0.13890073 0
0.00019537099 0.060594317 0.2230579 0
0.011594811 -0.018564366 0.00090255 0
0.044679232 0.031336237 0.063775808 0
0.013676623 -0.060651548 0.03142767 0
0.017061818 -0.053865239 0.0021995299 0
0.0039783847 0.076533496 0.1159714 0
0.0065152701 0.072413266 0.088051252 0
0.033963639 0.041754913 0.14024907 0
0.017195622 0.049917724 0.12806726 0
0.0088652167 0.087318003 0.2136353 0
0.0016085226 -0.068676427 0.18192074 0
0.042558685 -0.041526712 0.0046293102 0
0.012153631 -0.05909409 0.020670621 0
0.0065575149 0.093897179 0.13471808 0
0.037678175 -0.053812295 0.19660904 0
0.021828366 0.043586556 0.018345481 0
0.031569459 0.041796189 0.066386141 0
0.0066135731 0.047097612 0.03325538 0
0.022536898 -0.060301039 0.2310688 0
0.069377154 -0.011512153 0.22469003 0
0.055027813 0.0045267977 0.10751688 0
0.015841549 -0.063656405 0.13342677 0
0.011144282 0.03319392 0.22526655 0
0.027414968 -0.0020181127 0.21779738 0
0.015528422 0.034599137 0.22770596 0
0.035878845 0.047178227 0.1830917 0
0.040587917 0.037256274 0.09235362 0
0.011847073 -0.013843372 0.23404488 0
0.068172999 -0.0020984747 0.21410386 0
0.0082493518 0.054643627 0.15437604 0
0.026903896 -0.054188527 0.05263849 0
0.0070087668 -0.066776857 0.15381008 0
0.0039573703 -0.068153128 0.20966302 0
0.0013161879 0.096010119 0.13358831 0
0.031792082 -0.029299166 -0.00040290999 0
0.041168459 -0.01968801 0.22973914 0
0.058268689 -0.0093570007 0.1585651 0
0.011736443 0.084482044 0.21631975 0
0.019978618 0.051716115 0.1435208 0
0.059699312 -0.0061808974 0.06182301 0
0.026958385 -0.054488797 0.05810995 0
0.017362794 0.055164266 0.19219461 0
0.026310431 -0.031185428 0.22645847 0
0.027966352 -0.023126986 6.8099998e-06 0
0.0079998989 0.083889291 0.18247008 0
0.0084428731 0.085560784 0.10360963 0
0.0082370285 0.054703813 0.15532032 0
0.015563582 -0.061172258 0.08037705 0
0.0095745791 0.069885269 0.22453842 0
0.031021634 0.03974463 0.02904007 0
0.061080709 -0.033012647 0.2019064 0
0.0075833891 -0.066732898 0.13948242 0
0.0067242887 -0.0042829737 0.23931366 0
0.060744882 -0.034996767 0.21027905 0
0.061283961 0.020010214 0.19945109 0
0.043847173 0.005221853 0.22517481 0
0.059297331 0.0013802554 0.19907482 0
0.029123286 -0.034989282 -0.00058524002 0
0.054064304 -0.037727773 0.22994126 0
0.011621144 -0.065259337 0.14187875 0
0.055969752 0.033544477 0.22394709 0
0.045482434 0.004909113 0.22633132 0
0.059084475 -0.0110969 0.18019728 0
0.0085713211 0.067861393 0.20886299 0
0.0022705663 0.087483868 0.19963241 0
0.01984627 0.02708298 -0.00059433997 0
0.055531397 -0.036000285 0.12546158 0
0.0042185802 0.059979293 0.21743038 0
0.0070504565 0.078338161 0.20667176 0
0.028411305 -0.040704131 0.22607976 0
0.054869473 0.027599949 0.16116172 0
0.060583636 -0.0025195815 0.080374591 0
0.043107875 -0.042139575 0.096947178 0
0.062199041 -0.011391626 0.23002899 0
0.0567527 -0.0025255904 0.12491891 0
0.052847996 -0.029134629 0.13900205 0
0.012421368 -0.068770558 0.22679757 0
0.053195581 -0.0040085949 0.23165484 0
0.049637407 0.0075175241 0.022692589 0
0.06261979 -0.033385038 0.21882425 0
0.019662317 -0.061945513 0.1289425 0
0.065905392 0.0098146275 0.22937435 0
0.0034490321 0.053965475 0.1440703 0
0.037513047 0.029244512 0.01769671 0
0.042980775 0.039623719 0.21791412 0
0.0053133983 0.080850542 0.13943554 0
0.029937798 -0.01038369 0.00010369 0
0.0075227451 -0.056218721 0.23317803 0
0.046924271 -0.033737712 0.069143146 0
0.032402977 -0.04281069 0.00146817 0
0.022201322 -0.063515976 0.19250208 0
0.023779508 0.023595594 0.22402775 0
0.055940926 0.0069818106 0.031291369 0
0.054856107 -0.02926179 0.05858976 0
0.057793386 -0.018346921 0.048098199 0
0.047676474 0.030915979 0.099969633 0
0.035993017 -0.047125325 0.055133041 0
0.020995347 0.049575161 0.14490461 0
0.053112529 -0.015711619 0.066561401 0
0.034339815 -0.058243476 0.1347034 0
0.0027749445 0.047260035 0.02513146 0
0.035944462 0.046014484 0.21787278 0
0.0020648073 0.092816964 0.1689999 0
0.0086210612 -0.068698272 0.18449847 0
0.06198816 -0.01004504 0.1026068 0
0.046858951 -0.051294234 0.17632268 0
0.034880724 -0.052151114 0.11905513 0
0.0066587869 -0.063965797 0.08018098 0
0.014568115 -0.057216361 0.00300555 0
0.051435366 -0.036516014 0.18236463 0
0.055250917 0.0010178983 0.099539697 0
0.04989709 0.030100428 0.23150815 0
0.065725945 -0.019145034 0.19863039 0
0.00012390129 0.089396521 0.20375891 0
0.051555775 -0.0079349242 0.021766139 0
0.0038955342 0.086005375 0.1767461 0
0.027838795 0.048918683 0.18660916 0
0.010038918 0.090975672 0.21046992 0
0.040694222 -0.04214178 0.05837189 0
0.025423842 -0.062143806 0.2052093 0
0.0034588184 -0.060555864 0.0092286896 0
0.013261614 0.055778708 0.20831659 0
0.005595861 0.03940884 0.23125196 0
0.021360928 -0.0078523736 0.00061291998 0
0.0011018515 0.057963151 0.22992212 0
0.058600917 -0.038071882 0.20685232 0
0.006893767 -0.074302569 0.21227376 0
0.054297864 0.019215133 0.07976272 0
0.012803802 0.055637132 0.17928599 0
0.011324001 0.018890612 6.4890002e-05 0
0.019055221 0.0053742211 0.21555082 0
0.00025823526 0.093571082 0.19080855 0
0.044598639 0.033671431 0.093030043 0
0.024698185 -0.063970082 0.15631711 0
0.0033500493 0.036618434 0.22642176 0
0.01601279 -0.059903633 0.058076769 0
0.036843874 0.042167049 0.17671338 0
0.050379202 0.016485583 0.00611143 0
0.022686007 -0.07203804 0.22573379 0
0.048807051 -0.041412048 0.20035221 0
0.046487343 0.036826115 0.22477807 0
0.040647045 -0.039914556 0.23184595 0
0.014212159 0.051529612 0.13858011 0
0.021126214 0.050600883 0.1610543 0
0.045050345 0.040875364 0.19039507 0
0.023489846 -0.024344344 0.00035545 0
0.047385029 0.026886005 0.13233739 0
0.047168821 0.019608382 0.057956949 0
0.043291241 0.031141754 0.11873677 0
0.037558738 0.031129584 0.04083503 0
0.055222437 0.0094379969 0.13243742 0
0.025742998 0.041009784 0.047991879 0
0.0043526758 0.028885651 -0.00049940997 0
0.0071249511 0.07015498 0.086398043 0
0.0013018157 0.0071975868 0.23635443 0
0.048959449 -0.049954522 0.19332989 0
0.066921875 -0.0058402233 0.19394183 0
0.052029528 0.012351848 0.08698383 0
0.016249252 0.010450583 0.23840474 0
0.01056722 0.054443311 0.15523288 0
0.0077040996 0.095543444 0.18802249 0
0.002897257 0.082987532 0.1928774 0
0.058176562 -0.0017679036 0.23155268 0
0.037933584 -0.045765642 0.065084852 0
0.0081074629 -0.02633483 0.22058009 0
0.048547409 0.029373739 0.09365537 0
0.0017431267 -0.042425729 -0.00024972 0
0.022968769 -0.061841521 0.15601577 0
0.039313473 -0.049647924 0.14330012 0
0.00160929 0.090843663 0.10973781 0
0.01187312 -0.038110629 0.21910314 0
0.036226399 -0.058751285 0.16404518 0
0.06538821 -0.0043019988 0.16079918 0
0.012597704 0.024011847 -0.00028889001 0
0.050495729 0.025864925 0.083606742 0
0.019371085 -0.062893301 0.14535449 0
0.063983306 0.012648523 0.19488078 0
0.056216493 0.0034253187 0.022731571 0
0.040326722 -0.052495148 0.11069981 0
0.013896251 0.037530836 0.22935629 0
0.015681339 0.041625697 0.0037535899 0
0.049860194 -0.029234398 0.23220743 0
0.00049393065 0.047646258 0.031748861 0
0.017079854 -0.026629634 0.00052157999 0
0.054281924 0.01087294 0.12134001 0
0.031511173 -0.013370293 -2.9639999e-05 0
0.0038574729 0.066148534 0.081095546 0
