# .PCD v0.7 - Point Cloud Data file format
VERSION 0.7
FIELDS x y z
SIZE 4 4 4
TYPE F F F
COUNT 1 1 1
WIDTH 1415
HEIGHT 1
VIEWPOINT 0 0 0 1 0 0 0
POINTS 1415
DATA ascii
0.04484463 0.09939742 0.21771278
-0.07256558 0.02718598 0.10640218
-0.07183217 0.05347049 0.14862761
0.04059702 0.02894065 0.23202188
0.03628646 0.05525792 0.03911368
0.04026936 0.06791750 0.20894415
-0.01104922 -0.02490587 0.08783633
-0.02223440 0.06641400 -0.00031363
0.01031552 0.05934004 0.22713616
0.04388106 0.04176600 0.09967671
-0.01384655 -0.02794774 0.15159648
0.05145801 0.02814165 0.23177462
0.04760701 0.01576485 0.20997148
0.01260970 -0.01473315 0.02026704
-0.05904496 -0.00509151 0.11054763
-0.07155159 0.06605114 0.22654499
0.03970359 0.04101054 0.02201751
-0.02697788 0.09171383 0.13219363
-0.05122548 -0.00799238 0.03331918
-0.05832532 -0.00479932 0.09528016
-0.07035488 0.02218302 0.23105458
0.04653790 0.02452814 0.14209624
-0.02745253 0.08676507 0.04876845
-0.06866796 0.06605318 0.20300840
0.03471909 0.07846318 0.23095249
0.04526984 0.05595308 0.18609806
0.01628951 0.07584544 0.00625145
-0.00911403 0.09264629 0.13154663
0.01742565 -0.01818155 0.12860098
-0.03533044 -0.02398960 0.14863345
-0.00743544 0.09107756 0.10853632
-0.05035938 0.08304672 0.22825213
0.03515049 0.05545053 0.02178714
-0.01136441 0.09111144 0.10236881
-0.05574281 -0.01116135 0.22900595
0.02832512 0.07683048 0.22843380
0.04162908 0.04819977 0.08629486
0.04888641 0.09866365 0.14627095
-0.06105668 0.07750471 0.21153004
-0.01149037 -0.02576962 0.10547293
-0.07454574 0.02451497 0.15076708
-0.07122242 0.04230858 0.08881505
0.03493521 -0.00613517 0.18236610
-0.03622686 0.05304499 0.00012810
0.00864157 -0.02622573 0.21287212
-0.00688518 0.01260305 0.21823515
0.04703032 0.09732999 0.18716092
-0.04327301 -0.02216942 0.19583761
-0.01190080 -0.02592624 0.10919393
0.02236669 0.07401054 0.04098468
-0.00632166 0.05563170 0.23819868
0.06452996 0.09695181 0.20689680
-0.06023111 0.07021681 0.10972401
-0.00466682 0.09562948 0.19387859
0.03727027 0.05265162 0.03691008
0.05328069 0.08411140 0.22198988
0.04103816 0.03976579 0.04084607
-0.01457673 0.09199249 0.11594479
-0.06816856 0.06006141 0.13276380
-0.07740838 0.03075787 0.20882624
0.03610460 0.05157857 0.23203439
-0.01412887 -0.00047802 0.23652929
-0.05524504 0.08123650 0.18564540
-0.07580848 0.04423039 0.18007815
0.04276078 0.02584257 0.06904782
-0.04454357 0.08132813 0.07724855
-0.05975539 0.03621916 0.22861133
-0.05479716 -0.00481802 0.04050962
0.01284398 0.08258518 0.23062051
-0.00044034 -0.01060688 0.22937134
-0.02780774 -0.02695152 0.16411718
0.05811045 0.10993557 0.18999760
0.02971455 0.07865534 0.18407258
-0.02667064 -0.02277576 0.06979000
-0.05697896 -0.00893171 0.21794414
0.02692150 -0.01499893 0.20684231
-0.02243656 0.09663192 0.20773468
0.01428803 0.04033247 0.21664202
-0.06603134 0.06675519 0.15800827
0.01858932 -0.02063458 0.19506771
-0.07043204 -0.00030075 0.21269283
-0.01249852 0.06110239 0.00004828
-0.03918586 0.08675124 0.11605422
0.04244119 0.01481657 0.10500532
0.03635492 -0.00473470 0.19571355
-0.01082732 -0.02967330 0.22794065
-0.00962937 0.07811660 0.23410368
-0.04467449 -0.01972849 0.15141347
0.04098454 0.01276548 0.09049940
-0.05488024 -0.01297841 0.16410714
-0.06155645 -0.00569322 0.15878839
-0.06064714 -0.00602043 0.22893637
-0.03760955 -0.01653035 0.02187537
0.02860857 0.02802824 0.22609358
0.03559085 0.00803009 0.03611245
-0.06038764 0.08075426 0.22604497
0.03978114 0.06604637 0.17761178
0.03806950 0.00595900 0.09223945
-0.07531050 0.05705906 0.22472522
0.03634038 0.00915366 0.03955067
-0.07863182 0.04122152 0.22217661
0.04364023 0.07500808 0.08182812
-0.07561373 0.02176626 0.18320462
-0.05185600 0.07354876 0.04699918
0.01400584 0.00118585 -0.00246261
0.00415465 -0.02744149 0.22871139
-0.06296950 0.06187745 0.06605267
-0.07288074 0.05274470 0.16247603
-0.04358650 0.01865266 0.21911461
-0.06036029 -0.02653428 0.21655298
0.04582641 0.09498527 0.12762534
-0.01617597 -0.02747874 0.14187463
-0.06413049 -0.00783587 0.19675550
-0.00273032 -0.02518097 0.11412024
-0.06830859 0.01032958 0.23026750
-0.03905367 -0.01817185 0.06397869
0.01278813 0.03529411 0.00035807
0.04593720 0.10272704 0.18643575
0.04192591 0.01484834 0.09528625
0.05512355 0.09767731 0.18380271
0.02951964 -0.00605432 0.09022645
0.03463058 -0.00101504 0.10859310
-0.06449733 0.05847142 0.06125410
0.00214430 0.04100019 0.22075967
-0.06939621 0.01798601 0.07974289
-0.05099892 0.07329143 0.03512740
-0.03245536 0.08654782 0.06978237
0.04214631 0.08349481 0.21049408
-0.06232084 0.07108672 0.14908444
-0.06199961 0.07543696 0.20473583
0.04043754 0.06701659 0.20442853
0.03037816 0.07782522 0.07733815
0.04944670 0.08082872 0.20925167
0.02978530 0.01400723 0.23043411
-0.07171280 0.01797573 0.12163531
0.00619693 -0.02718736 0.21368786
-0.02713436 0.08741509 0.05807479
0.04630235 0.04600581 0.15275829
-0.01091751 0.09131488 0.10639212
-0.00588883 0.08952629 0.08496633
-0.05511066 0.06202471 0.00178828
-0.05437291 0.08062956 0.16535579
0.04489884 0.02669196 0.10607431
0.04827835 0.08013895 0.22265210
0.04714190 0.01741615 0.18418946
0.01975948 0.05442206 -0.00086741
-0.01545481 0.07757872 -0.00082545
-0.00705209 0.07869877 -0.00036238
-0.06867172 0.02043463 0.05709994
-0.01839695 0.06074690 0.22526269
0.04892333 0.09934146 0.10255676
-0.04018007 0.00487853 0.22892740
-0.06183639 0.00209274 0.06865549
0.02150123 -0.01846600 0.18419212
0.03995725 0.04604381 0.23157492
0.02010569 0.08141983 0.11982762
-0.06576593 -0.02693125 0.21149963
0.04927196 0.05174168 0.22045912
0.04391320 0.05342180 0.14911735
-0.02229356 0.01028607 0.23852489
-0.04923870 -0.01854560 0.19128014
0.03772531 0.05055107 0.03064766
0.03800636 -0.00595715 0.22235267
-0.06873937 0.05477531 0.10474458
0.05569573 0.10100016 0.15505598
-0.07223528 0.01878931 0.12749083
-0.05264374 0.07437904 0.06333680
-0.07461481 0.04991719 0.18057584
-0.05147591 0.08501509 0.20253502
-0.02205880 -0.02173346 0.03258696
-0.00206834 0.08559862 0.02740444
-0.03658764 0.08042271 0.00624019
0.02000182 -0.02033680 0.20952758
0.05260852 0.09365528 0.09674323
0.03904441 0.00478553 0.12116625
0.04834440 0.04778207 0.20108054
-0.07769484 0.03386332 0.21043448
0.00376441 0.02524553 0.21417717
-0.07436478 0.00978790 0.22395875
-0.04306562 0.08071961 0.05407356
0.04491613 0.04901832 0.14239120
-0.03199653 -0.02164948 0.07649858
-0.01413907 0.09258588 0.12692203
-0.00527571 -0.02896909 0.19998013
-0.05450035 0.06975019 0.23179631
0.01272180 -0.02420689 0.20945419
-0.02252944 0.08799311 0.05282200
-0.04145940 0.05036874 -0.00007515
-0.06330556 -0.00475348 0.17538891
-0.06015845 0.06822021 0.08829978
-0.05765188 0.06871026 0.05785369
-0.07577649 0.03311560 0.16130749
-0.06867635 0.02982918 0.03084504
0.00179053 0.09083937 0.13423323
-0.04144385 -0.01838780 0.09231484
-0.03909021 0.09190108 0.20350287
-0.02444951 -0.02796278 0.17218019
-0.02035771 -0.02452348 0.08426260
-0.01469501 -0.02118416 0.01072280
0.01133927 -0.01965976 0.09679561
-0.07069460 0.00661100 0.18668664
0.02044097 0.07811828 0.07224411
-0.05757865 -0.02498970 0.22292210
0.03651011 0.01185851 0.02412527
-0.02641564 -0.02709287 0.16131714
-0.04816818 -0.01175093 0.05187815
0.02137294 0.07433055 0.03375943
0.04448444 0.09265495 0.08943504
0.02470084 0.06884848 0.00705753
0.02958353 0.07306146 0.11763623
-0.02205295 0.08578766 0.01590948
-0.06137352 0.03032637 -0.00031302
0.00408050 0.08304393 0.01239495
-0.04648087 0.08915304 0.23022477
-0.03343276 0.01905419 0.21883537
0.05751260 0.10278617 0.13836786
-0.05354558 -0.00938548 0.08812156
-0.04809289 -0.01635177 0.12982294
-0.03038370 -0.02363379 0.10780637
0.04702073 0.03385719 0.14027620
0.05405198 0.08794460 0.13390709
-0.07205458 0.04678524 0.11974545
-0.03406828 0.05129175 0.00031535
-0.06515932 0.01670594 0.00868872
-0.06388968 -0.00145849 0.21947135
-0.06229456 0.06596833 0.09551712
-0.01880955 0.01198125 0.23881807
-0.04889166 0.07720363 0.05928262
-0.02517983 0.06350553 0.21808306
0.01052057 0.08039864 0.01498357
0.05638199 0.08813525 0.16054733
-0.02251822 -0.02593983 0.12109521
0.06507808 0.09884739 0.13523111
-0.05411543 -0.02367224 0.21796635
-0.03222541 0.05256653 0.21577080
0.04631256 0.09762493 0.09794798
-0.05579069 -0.02347037 0.21459890
-0.01487521 -0.03121100 0.22187726
-0.01175264 -0.02840339 0.16216629
0.02663816 0.07873689 0.15064595
-0.00516564 0.04676351 0.23894176
-0.06305419 -0.00228280 0.21397350
0.06112542 0.10344660 0.13613708
-0.06296957 0.00936740 0.01972825
-0.04342770 0.08309976 0.09292656
-0.07354907 0.06262161 0.23177013
-0.05158600 -0.00971479 0.06580503
-0.02787489 0.02943582 0.22757128
-0.04247638 -0.02259457 0.19883345
0.04324589 0.00060222 0.22851466
0.02102920 0.00553941 -0.00114832
-0.01141216 -0.03049956 0.21562787
-0.07539146 0.05218048 0.22927845
-0.02917191 0.05216507 0.00043937
-0.00592694 0.09599807 0.19875934
0.06516426 0.10323935 0.17922443
-0.07319901 -0.00706699 0.21783744
-0.04673675 -0.02016334 0.19100527
0.03782067 0.07209416 0.21113280
0.04994600 0.03339393 0.20365019
0.05777406 0.10304023 0.14232517
0.05160594 0.09064907 0.18596914
-0.05675146 0.00065837 0.23232662
0.00714894 -0.02679918 0.23123048
0.03642420 0.00133185 0.11109686
-0.02684021 -0.02742442 0.17100083
0.05145025 0.08845766 0.12567240
-0.07286537 0.04025754 0.11374984
-0.07192021 0.03996631 0.09589115
0.03236464 0.05890524 0.00790176
0.04386894 0.08426818 0.10230401
0.01421189 -0.01843086 0.23048833
0.06122649 0.10203912 0.19541153
0.04588813 0.02156533 0.13817809
0.00028372 -0.02710496 0.16875954
-0.00579035 -0.02862930 0.17867275
0.02579627 0.07221122 0.06484390
0.03345956 0.07447986 0.17925124
0.05546689 0.08733207 0.20348242
-0.06309278 0.00140320 0.09715411
-0.06818055 0.06640021 0.19599073
0.01981490 0.04611054 0.22068844
-0.04415364 0.08011018 0.05518355
-0.00676055 -0.02801465 0.16200776
0.05176411 0.02674527 0.22604704
0.00728438 0.09421370 0.23116709
-0.07129118 0.00138467 0.21710682
0.00530190 0.08734777 0.09777223
-0.06075248 0.06862938 0.10081379
0.01368918 0.04872835 0.21785670
-0.07053603 0.01835337 0.09796861
0.00087706 0.04256848 0.23417366
0.04345407 0.00061446 0.23011303
0.02276474 0.07408187 0.04951898
0.02976129 0.06974678 0.08196331
0.04100112 0.04551082 0.06122824
0.03992151 0.02789014 0.01499932
-0.07351849 0.01702384 0.16156009
-0.02650533 0.09505946 0.18745336
0.03543781 0.08220784 0.21034234
0.04735338 0.08447048 0.10931409
0.01420120 0.07693428 0.00531084
0.03100679 0.07364234 0.08453192
-0.06034399 0.04601963 0.23019465
0.04973794 0.03828725 0.20196788
0.00009234 0.03175829 0.00088126
-0.00802074 0.03972613 0.00068009
0.05461049 0.08787165 0.16589248
-0.06036916 0.07627434 0.18517448
-0.05820911 0.06213205 0.00672255
-0.02484969 0.04287955 0.21530086
-0.04546714 0.04190084 -0.00006110
-0.01615443 0.08998881 0.08053996
-0.06846401 0.02994587 0.02676666
0.03611273 0.09101373 0.22264530
-0.06329069 0.00308669 0.08319718
-0.05283247 -0.01102221 0.10387437
-0.05153442 0.07573889 0.06841550
0.04827000 0.05121725 0.21071144
0.00219734 0.08839467 0.23002115
0.01218774 -0.01612797 0.04064994
0.05036668 0.09376403 0.09470526
-0.01345868 -0.02646946 0.11959794
-0.02362722 -0.00502424 -0.00044932
0.05815480 0.08956750 0.16605278
-0.04504032 -0.01957292 0.15258535
0.00169123 -0.02383481 0.10821727
0.00503006 0.08552676 0.06464561
0.03260457 0.06242663 0.04582376
0.02937838 0.07720383 0.16224925
-0.00592288 0.08691238 0.03612189
-0.04463068 0.08291331 0.10076570
0.03949207 0.06878073 0.20533227
-0.05660494 -0.00715057 0.10169400
-0.03349755 -0.01909361 0.03637650
0.03272683 -0.00627940 0.14473222
-0.04661718 0.03605685 -0.00005559
-0.03453127 0.07112411 -0.00195256
-0.06022165 0.07380172 0.15111066
-0.01091352 -0.02382820 0.06630236
-0.01301826 0.09395852 0.14958180
-0.03040984 0.05108992 0.21513333
0.06213878 0.09964867 0.14210323
-0.05924356 0.07723388 0.18032455
-0.02884615 0.09493453 0.19654739
0.04353120 0.02383342 0.08553395
0.05650646 0.09451721 0.10640712
-0.04536064 -0.01919793 0.14953222
-0.06694187 0.03762146 0.00664331
0.03064186 0.06594968 0.05534890
-0.03651119 0.03134873 0.21491430
0.03666122 0.07221700 0.20198742
0.03820373 0.02590266 0.23252638
0.02804036 -0.00596997 0.06889070
0.02622523 0.08043562 0.16715527
0.00263325 0.08494639 0.03969066
0.00526342 0.09303840 0.22676784
-0.06775738 0.06461665 0.16512239
0.00453503 -0.02041938 0.05904759
0.06270952 0.09467531 0.11210866
0.01091240 -0.02629501 0.22098072
-0.01637310 0.09242041 0.12356991
0.03779315 0.07767987 0.22480990
0.03559632 -0.00170240 0.13278625
0.00827168 -0.01815996 0.04345053
0.04552509 0.01235362 0.18354027
-0.03156103 -0.02621152 0.17078223
0.04957486 0.03450993 0.19258830
0.04756850 0.09524061 0.13918694
0.04515833 0.09640478 0.11931832
-0.05376247 0.08455041 0.21418814
0.04635778 0.10044612 0.14265867
0.04448547 0.09596793 0.22129678
0.00858914 0.01795739 0.00049954
-0.00878446 0.08783216 0.04411682
-0.01598555 -0.02199915 0.02726912
-0.06636257 0.04585508 0.01588171
0.02261347 -0.01826298 0.20619645
0.04073365 0.06716755 0.23016444
-0.01151249 -0.03179079 0.22736254
-0.03261657 -0.02525178 0.15653046
-0.06746683 0.06159463 0.13429316
-0.02090830 -0.02741385 0.14854655
0.05688337 0.09251271 0.17086003
0.05312032 0.09143416 0.09884301
-0.06342921 0.05316409 0.00889403
0.02445252 -0.01743912 0.21083626
-0.05987860 0.07690865 0.18786102
-0.07343936 0.03030791 0.11811352
-0.06757193 0.03314794 0.00974756
0.03685533 -0.00219706 0.16125061
0.04800576 0.09595221 0.19763281
-0.06955868 0.01440460 0.10127847
0.00063660 0.03512124 0.21614242
-0.03728044 0.01619411 0.21755688
-0.00145144 0.09236267 0.14582876
0.01969752 0.08748037 0.20825477
0.04025160 0.06782582 0.20795447
-0.00583426 -0.02858148 0.17759998
-0.07244653 0.04098460 0.10856361
-0.02118675 -0.03163191 0.22903987
-0.02649339 0.08670949 0.04443485
0.04323953 0.06345248 0.21120137
0.01308135 0.08042010 0.04138595
0.05383988 0.09582542 0.11854601
-0.06991076 0.00806625 0.15456754
-0.06363695 0.04845438 0.23223045
0.01691781 0.08743892 0.17550863
-0.05847911 0.08288765 0.22796099
0.03728979 0.06313557 0.11904338
0.04893233 0.10064859 0.10415126
-0.05636745 -0.00461147 0.06265840
0.01674860 -0.02172342 0.19834181
-0.04889232 0.03084186 -0.00021102
-0.02698474 0.08534461 0.02507113
0.01505072 0.04583928 0.21774420
-0.04040290 0.08758293 0.13692712
0.02780112 0.04861006 -0.00092780
-0.07817814 0.03147631 0.23080352
0.02432748 0.08186040 0.16591736
-0.06920477 0.00845361 0.13810585
0.04470572 0.04816197 0.13544507
-0.06837564 0.03705353 0.02625935
-0.00232174 0.06472705 -0.00028234
0.03488013 0.06832248 0.13399826
0.03448080 -0.00326333 0.13306192
-0.03923899 -0.02401409 0.19421132
0.04757476 0.10245912 0.17167176
-0.04238469 0.07827469 0.01323844
0.00807272 0.00109104 0.22348265
-0.02702036 0.00924258 0.23815129
0.00683369 0.08682373 0.09828540
0.05824065 0.10561092 0.15502957
0.05424328 0.08841274 0.14026555
0.04906941 0.09433152 0.11404774
0.00075829 -0.01187325 0.23064649
0.03661694 -0.00004640 0.13028182
0.04893670 0.02523766 0.19033186
-0.03464351 -0.02323809 0.12837187
-0.05832941 0.07780780 0.17565248
-0.00446881 0.04621762 0.00043566
0.00795948 -0.02573127 0.19954794
-0.05611694 0.05792530 0.00072345
-0.05926319 0.00411942 0.00748256
-0.06052053 0.07054078 0.11836536
0.02442427 0.08814784 0.22458411
-0.06702182 0.06176145 0.12861541
0.04626779 0.10215127 0.16335450
0.03942291 0.04538194 0.03275751
0.03802380 -0.00196894 0.17992511
0.03213495 0.03240668 -0.00055134
-0.05107504 0.07297905 0.03234433
0.02769354 0.07828813 0.15673533
-0.05444115 0.07466422 0.08968724
0.04537379 0.02697384 0.11484154
-0.06801833 0.06451475 0.16819372
0.05822868 0.10604032 0.19133676
-0.00111821 -0.02128189 0.23157174
-0.03215497 0.01845153 0.23141337
-0.04554634 0.05466010 -0.00063230
-0.01796742 -0.02784046 0.15209612
0.00277490 0.09064788 0.13531602
0.00686963 -0.01924781 0.05298193
0.00566976 0.01056792 0.21734926
0.01666958 0.09140203 0.22457492
-0.04087669 0.08208594 0.05716898
0.00804745 0.01930185 0.00056953
-0.04408140 -0.01445666 0.04877431
-0.06981053 0.03344733 0.04832528
0.04061670 0.03914007 0.23184672
0.03814165 0.00655962 0.08782622
-0.00261948 0.08631170 0.03707991
-0.06761244 0.03738972 0.01350175
-0.06910150 0.02784410 0.04307207
-0.01796689 -0.01896218 0.00282122
-0.00305255 0.00219250 0.00021587
-0.05260011 0.08201821 0.16433981
-0.02750448 0.09402857 0.17039951
-0.04870128 -0.01686309 0.14664860
0.04373140 0.00625110 0.20907879
0.00883264 0.08115750 0.01376231
-0.00509711 -0.02988541 0.23204089
-0.04185580 -0.01887251 0.10548853
-0.01317678 -0.02862041 0.16650054
-0.05094501 -0.01999428 0.21925752
0.00092515 0.08749397 0.07537670
-0.01047572 0.00359971 0.23015862
0.02919475 0.07360080 0.11859239
0.03314970 0.06318312 0.06406277
-0.07194689 0.03673366 0.09118743
-0.05357086 -0.01524490 0.18654757
0.02733762 0.04597980 -0.00235953
-0.00291158 0.07667102 0.23438182
-0.07612602 0.03757817 0.17096851
0.04314755 0.01535211 0.11509919
-0.06048776 0.00088944 0.05919600
-0.02837198 0.08487122 0.02300051
0.04355041 0.02940766 0.07723283
-0.01778495 0.05186687 0.00047900
-0.05336129 -0.01232756 0.13177036
0.04912871 0.07937320 0.22425438
0.01656803 -0.00094273 0.22905901
0.04537149 0.08715727 0.09032748
-0.06019006 -0.02522155 0.21293778
0.04236619 0.09057511 0.20925553
0.02581016 0.08253705 0.19457832
-0.01092982 0.00164629 0.23112831
-0.02540297 0.07393621 -0.00258256
-0.00663824 0.02802842 0.00110238
0.04618655 0.03182264 0.12524719
-0.03339575 -0.00681543 -0.00219292
-0.06984979 0.01013325 0.13680426
0.06542049 0.09776022 0.15996115
0.03450989 0.07741203 0.20518015
-0.04050249 0.07957791 0.01724846
-0.06608805 0.07284331 0.21911762
0.00047513 0.08451124 0.23160616
0.05125379 0.04716841 0.22978975
-0.02051154 0.03443621 0.00093615
-0.00047788 0.08619702 0.04451635
0.03686256 0.07202388 0.20284562
-0.00481124 -0.02217449 0.04630485
-0.06958421 0.04118124 0.05825173
-0.02483890 0.07765412 -0.00047382
-0.01919090 0.08279308 0.00200053
-0.07684965 0.03636163 0.18728008
0.01261988 0.09188709 0.23110167
-0.03847376 0.01257671 0.00005145
0.02141401 0.02462010 0.22103313
-0.04379703 0.08303767 0.09515059
-0.04550372 -0.00662107 0.23327873
-0.06569830 0.04756911 0.01282679
-0.05866915 -0.00993498 0.17226287
0.01118995 -0.01797112 0.06473232
-0.02830930 0.09179787 0.13792756
0.02344618 0.07600070 0.08262672
0.01245092 0.00314124 0.22429572
-0.04800219 -0.01058257 0.03103897
-0.06853869 0.01159287 0.10214564
0.03375922 0.00967232 0.00547326
0.04566179 0.04727814 0.14709967
-0.06614941 0.05155375 0.04033208
0.05118580 0.07770945 0.22324070
0.03565650 0.00464101 0.06404153
-0.06704590 0.06664615 0.17327024
0.01094784 -0.00089065 0.22616039
0.04398974 0.08628708 0.09342128
0.02552543 -0.00650680 0.04150061
0.04632776 0.01414653 0.19064241
0.03969421 0.06978104 0.23126472
0.01206258 0.01048733 0.21991296
-0.03298115 0.02134700 0.00068327
0.03647944 0.01336120 0.01366011
-0.05229536 0.07100137 0.02215445
0.05978148 0.10856383 0.17304325
0.02990853 -0.01180283 0.18851254
0.04011475 0.00843157 0.10717614
0.06442993 0.10362249 0.16627603
-0.01026983 0.07204915 -0.00075371
0.03252384 0.00479888 0.01695463
-0.01180050 0.09945550 0.22636606
-0.06104667 0.06413153 0.05781406
0.02818949 0.07845740 0.16395901
0.01678864 0.03703552 0.00005664
-0.05096792 0.08807794 0.23169424
-0.01656862 0.05671077 0.00027731
0.06545799 0.09995959 0.14376972
-0.06768583 0.00831117 0.11198252
0.03129943 -0.00348909 0.08241463
0.04461739 0.00266583 0.23154529
-0.07286048 0.05479781 0.17512518
0.05017907 0.08450869 0.20691554
-0.02456655 0.09000072 0.09525848
0.01059557 0.06162474 -0.00067117
-0.00250931 -0.02269983 0.06602992
0.05652131 0.11145539 0.17685895
-0.04469366 -0.02249391 0.21620296
0.05895378 0.09391926 0.21270104
-0.04990218 -0.00385892 0.00226203
-0.04152773 -0.01842485 0.09393835
0.03760502 0.07590643 0.09627801
0.00747863 -0.02519841 0.17347892
0.03917542 0.09590576 0.08986578
-0.06947581 0.03183836 0.04273460
0.03959076 0.04875258 0.05246649
-0.07014045 0.03037694 0.05689649
0.04413658 0.02105731 0.10605406
0.05272247 0.09144854 0.20234209
-0.02832953 0.06367331 0.21887736
-0.03044632 0.09251749 0.15746807
-0.06295478 -0.02322072 0.20687591
0.01439279 0.07820917 0.01458784
0.03583472 0.06080516 0.08109800
0.04706829 0.01539924 0.20498508
-0.05735933 0.01727525 0.22929371
0.00411582 0.08628359 0.07233867
-0.04283419 -0.01061441 0.00313080
0.04952407 0.02787141 0.20211130
0.01919260 -0.01720678 0.13156586
0.04530212 0.02320881 0.12205214
-0.02558168 -0.02399960 0.09147177
0.01675417 0.08033093 0.07784509
0.01442882 0.07825679 0.01595738
0.04926446 0.08376921 0.20747658
-0.06247607 0.00120095 0.08939155
-0.04830463 0.02886771 -0.00016304
-0.02337750 0.02853868 0.23908993
0.03202653 0.06047009 0.01419096
-0.02210698 0.08792389 0.05102332
0.01706472 -0.02235433 0.23017071
-0.07057053 0.03084471 0.23139670
0.02953984 0.06014406 0.00318182
0.06027319 0.10036682 0.13367772
0.06473048 0.10020301 0.14025888
0.05411537 0.10906582 0.14727634
0.02580219 -0.00534576 0.03152335
0.03282561 0.00001651 0.06566910
0.04562420 0.03409083 0.11611572
-0.03372867 0.03838077 0.00068686
0.04922812 0.03548354 0.18168168
0.05598861 0.11130392 0.16206333
0.01355826 -0.02145945 0.15073386
-0.01017392 -0.02891645 0.17518613
-0.00457431 0.09321444 0.15022109
0.03230435 0.06604217 0.07801882
0.04602071 0.08830626 0.09461590
-0.06909755 0.02174666 0.05997190
0.02415822 -0.01552592 0.16359060
-0.05913178 -0.00200487 0.07195031
-0.06846414 -0.00944252 0.20123000
0.04144655 0.00908986 0.12763393
0.05741264 0.10292951 0.11766175
-0.03595842 0.09422541 0.21404618
-0.06660625 0.00139594 0.15887565
-0.00035616 -0.02522290 0.12603913
-0.00841491 0.09951692 0.22853931
0.04807218 0.03391320 0.15911793
0.05595082 0.09820633 0.17663607
-0.01722075 0.09851725 0.21925971
0.04222378 0.07451481 0.20963531
-0.06650671 0.03582067 0.00453460
-0.06415692 0.00365682 0.09227668
-0.00340607 0.09655358 0.21131321
0.01832332 0.01765829 -0.00011396
-0.01603012 0.06166150 0.23587580
0.00898997 0.06820084 0.23496678
0.01780176 0.08567363 0.15791907
-0.02574898 0.09513812 0.18555604
-0.06408863 0.00778950 0.05161221
0.04327151 0.04883533 0.11526726
0.02232844 -0.01292653 0.09467698
0.00655823 0.09062633 0.15448683
-0.00071559 0.09754489 0.23137367
-0.05642105 0.08404967 0.22424420
0.05740825 0.09964821 0.18305748
0.06436473 0.09948488 0.20348631
-0.00094837 -0.01857910 0.23250406
0.04230610 0.08769553 0.09257213
-0.06742784 0.03168118 0.00776495
-0.02672955 0.04408933 0.21373903
-0.04065932 0.08273326 0.06528174
0.02729946 0.07900068 0.16070687
0.04910815 0.03438662 0.17808444
-0.03383583 0.08691214 0.08416341
0.03079423 0.07340873 0.08336773
0.04314026 0.08550599 0.09593332
-0.00535373 0.09302928 0.14543934
-0.05916612 -0.02029617 0.20713275
-0.06696953 0.02169134 0.01754686
-0.07230487 0.04710828 0.12528704
-0.01982462 0.09590145 0.18571564
0.04651583 0.05398344 0.19993104
0.02882962 0.05499490 0.00033363
-0.06563240 -0.00131313 0.17198139
0.02136175 0.03092517 0.22017171
0.01507703 0.02556002 0.21716057
-0.05702449 0.07474689 0.12177503
-0.07305141 0.01326099 0.17562517
0.04835031 0.02250678 0.18610629
0.04508839 0.03418803 0.10500044
0.03887528 0.07450439 0.09788011
0.01247069 -0.01410981 0.00806338
0.06456296 0.10229775 0.15298459
-0.04740104 -0.01172186 0.04205052
0.02690966 0.08231030 0.20324650
-0.01535834 -0.02931486 0.18588230
-0.05724235 -0.00070861 0.23200126
0.02691563 -0.01512055 0.20778306
-0.02262222 0.09596053 0.19509390
-0.05242387 0.07188179 0.03398918
-0.01199970 -0.00893688 0.23227287
-0.02153070 0.08097233 0.23017620
-0.06229910 -0.02748931 0.21638830
-0.03062025 -0.02264391 0.08854387
-0.04284531 -0.02248910 0.20313363
0.01151052 0.07973935 0.01224069
-0.07171068 0.01039684 0.17015998
-0.05985156 -0.00224692 0.08651636
0.02980723 0.07258096 0.11469168
0.03854026 0.07833073 0.22459370
-0.06169377 0.06497319 0.07693041
0.02826661 0.07364025 0.10727966
-0.01015415 -0.02458994 0.23063386
-0.05057826 0.07171945 0.00942650
-0.00980144 0.09023847 0.08891298
0.01370659 -0.02374823 0.22844385
-0.05698447 -0.00602420 0.09141585
0.01198076 -0.02157730 0.13843091
-0.00950958 -0.03117738 0.22251769
0.03914246 0.04527988 0.02731192
-0.07154012 0.05942627 0.18811784
-0.02869748 0.09000797 0.10950067
-0.02790316 0.09487304 0.18980339
-0.03391798 0.08742496 0.09298750
0.02630383 0.08436562 0.21650961
-0.03111388 0.09647333 0.21978490
-0.01941001 0.08901837 0.06273190
-0.03392303 0.09472067 0.21260739
-0.03962659 0.07600997 0.23118120
-0.05509939 -0.00147896 0.23234442
0.04441026 0.02426600 0.23033158
0.04594268 0.04527302 0.14384222
-0.07534140 0.05835253 0.23176553
0.04395158 0.02487557 0.09031326
-0.00005441 -0.02243208 0.07178112
0.01511477 -0.02544439 0.22977994
0.05217007 0.09791615 0.20228689
-0.01141423 0.08029305 0.00012179
-0.06272253 0.06478727 0.08990258
-0.07296566 0.02313119 0.12490869
0.05462444 0.10018322 0.18749727
-0.00114081 -0.02524538 0.12290576
0.05219751 0.10486933 0.11735993
-0.05011459 -0.01443746 0.12252000
-0.00005901 -0.02774133 0.18190799
0.05461139 0.11128450 0.15571873
-0.04230257 -0.01533692 0.04435512
-0.04635371 -0.02070628 0.20794194
0.03056476 0.06542596 0.04758161
0.04619927 0.09918857 0.21949371
0.06167808 0.09706206 0.12455781
-0.03020765 0.02422567 0.22349743
0.04473839 0.09690037 0.17357211
0.04358875 0.03731160 0.08112269
-0.01049315 -0.02492523 0.08918557
-0.02201731 0.09416787 0.15848182
-0.01400828 0.02806188 0.00107700
-0.01796877 0.09434826 0.15607317
0.05624713 0.08905363 0.13986482
0.03305679 -0.00590926 0.14530971
0.05658383 0.10210241 0.18204461
-0.06947776 -0.01472175 0.20406601
-0.05465337 0.07682027 0.11912910
0.04645587 0.01268885 0.20841224
-0.02831696 0.08476404 0.02062335
-0.07065306 0.03774484 0.07024227
-0.07409692 0.04915803 0.16643624
0.04267696 0.06125647 0.18155242
0.03583626 0.07040452 0.16577442
-0.05684413 -0.02112664 0.20633334
0.04090820 0.04868715 0.07600372
0.05857917 0.09025896 0.18377362
0.02836652 0.06632974 0.02059783
-0.07233016 -0.00788112 0.21399048
0.03839330 0.09309928 0.20800497
-0.07471934 0.05151822 0.19995661
-0.04568915 -0.01384420 0.05719917
-0.03130847 -0.01969372 0.03315136
0.03915237 0.03961264 0.00941548
0.02718136 0.07505097 0.11250269
0.01548872 -0.01319878 0.02322216
0.02346647 -0.01405547 0.12897073
-0.02766920 -0.02849168 0.21124229
0.04633481 0.01325281 0.20435435
-0.04390551 0.08409912 0.11153496
0.02978769 0.07425662 0.13304394
0.04220015 0.09065706 0.08941312
-0.03800145 0.08609112 0.09726190
-0.02080204 0.09597670 0.18986723
-0.03794449 0.07819247 0.00307125
0.04035074 0.08672143 0.21903705
-0.07042189 0.03402442 0.06263721
-0.00237357 0.08742656 0.05830526
0.04902501 0.03540076 0.17672296
-0.05034953 0.07738406 0.07859877
-0.04955093 0.08901039 0.22389482
0.03715971 -0.00215869 0.16653326
-0.01905370 -0.02102994 0.01199686
0.04142634 0.09935246 0.21919847
0.04603865 0.03535408 0.12381361
-0.06255254 0.00400818 0.23133896
0.00532601 0.00440784 0.22022703
0.04442236 0.03949037 0.10332059
-0.02154701 0.06476596 0.21817953
0.03198396 0.00400786 0.01607327
0.03435134 0.02353824 0.23149333
0.03577145 -0.00251370 0.14589254
0.00941896 0.07453038 0.00026895
0.03806059 0.06001457 0.10554570
0.02289009 -0.01734162 0.17955620
-0.00398211 -0.02116585 0.02972187
-0.07220517 0.01112725 0.17360976
-0.07894138 0.03568717 0.22196210
-0.01847119 0.00541962 0.23809148
-0.00877316 0.07672863 0.23442469
0.05666621 0.09865254 0.14569004
0.00678092 0.03119939 0.21435992
-0.03902815 -0.01210252 0.00233723
-0.01272264 -0.03005369 0.22915467
-0.03749219 0.08160136 0.02475748
-0.04312020 0.07532416 0.00324071
-0.07035395 0.05177190 0.11401830
0.00072038 -0.02196150 0.06670048
-0.03683056 -0.02254886 0.13169293
0.03737092 0.03727369 0.00296273
-0.01481197 -0.02885902 0.17189667
0.02387019 -0.00877665 0.05014484
-0.00285592 0.08490098 0.01024843
-0.04008545 0.08450992 0.23039503
0.04427207 0.10373896 0.21786264
0.05004021 0.04890860 0.22054022
0.03531840 0.05419397 0.23196404
-0.06526282 0.00317657 0.11675617
-0.07165756 -0.00266358 0.21380666
0.05625396 0.10145619 0.13605913
-0.00702344 0.08997197 0.08987410
-0.02110413 0.05759351 0.21663994
-0.06053320 -0.00907063 0.19182914
-0.04267223 -0.01860514 0.10896172
-0.04512670 0.01319734 -0.00038821
0.01181738 0.08237360 0.06294616
-0.00793162 0.09351829 0.14780773
-0.01700019 0.09677996 0.20387164
-0.07605089 0.02465952 0.18040770
0.04496363 0.02115138 0.12246926
0.01007943 0.05990787 0.23113226
0.00757823 0.09213576 0.18556921
0.04819157 0.04397646 0.17737021
0.00099821 0.08135250 0.00262043
-0.07681326 0.04065488 0.20105299
0.01355576 0.08780233 0.15533410
-0.01411856 -0.02617074 0.11331912
-0.00528361 0.02390309 0.00109990
-0.03771955 0.01861809 0.00033778
0.02530156 0.07835491 0.13198280
0.05658268 0.09157708 0.15435288
0.03937469 0.06587982 0.17119130
0.04235731 0.00563498 0.17663450
0.01741404 0.07910817 0.23088637
-0.05674191 0.04428544 0.22709387
-0.03640759 0.08389383 0.05216017
-0.04469137 0.09163487 0.22285446
0.05088665 0.04623864 0.22352042
-0.04869246 0.08129846 0.11410403
0.03510503 0.06925905 0.14655894
-0.06118666 0.07451896 0.22774699
-0.05086561 0.06860822 0.00299065
-0.06514945 0.01607979 0.01123479
0.03233567 0.07319340 0.22819582
-0.00798223 0.02538821 0.00111827
0.00612247 0.05185715 0.22828002
0.04241749 0.06138459 0.22662959
-0.06858591 0.00763760 0.13395901
-0.07142554 0.05963419 0.18736054
-0.06619455 0.05513834 0.06407007
-0.06602136 0.06673876 0.15770623
0.00304488 0.04499975 0.22714587
-0.00840479 0.00452590 0.21930499
-0.01270054 0.00817352 0.23766731
0.04838026 0.03725189 0.16716417
-0.01267301 0.03484508 0.00089215
0.01299981 0.08584580 0.12240962
-0.07028171 0.04749400 0.09096297
-0.00133428 -0.02794471 0.18015663
0.04578101 0.09910838 0.15739404
-0.06825870 0.02478669 0.03238979
-0.05120117 -0.00837172 0.03886386
0.05186476 0.09325565 0.13074182
-0.04355486 0.07939123 0.23154784
-0.02678150 0.08569368 0.03014055
-0.06660266 0.02383177 0.00680785
-0.00436507 0.02319604 0.22020469
-0.00439360 -0.00951034 0.22777963
0.01362721 0.09280288 0.22383074
0.01783369 0.00164693 0.22820119
-0.02207795 0.03444157 0.23860045
0.05974416 0.10184186 0.17847772
0.04179778 0.01315141 0.10358539
-0.04123598 0.08582672 0.11628961
-0.02855967 0.08854776 0.08442956
-0.07074539 0.04090972 0.07597227
0.04325516 0.06871129 0.22736716
-0.03384067 0.05190749 0.00030857
0.03032969 -0.00553707 0.09457223
0.00132566 0.06942602 -0.00081849
-0.03031547 0.09054781 0.12565048
0.01035531 0.09107691 0.18599236
0.01675976 -0.01222680 0.02124860
0.03655858 0.06363228 0.11304757
-0.03251993 0.09128914 0.14779210
0.06211869 0.10195593 0.16063017
0.04087971 0.03872540 0.03531304
0.01204642 -0.02354461 0.17825270
0.00045695 0.09033328 0.12092581
-0.04792999 -0.01529616 0.10958073
0.01018875 -0.02563118 0.23066206
0.05843174 0.10034426 0.14100039
-0.00048345 0.03676913 0.22879968
0.05666083 0.10604003 0.12726163
-0.06376928 0.00964822 0.03127447
-0.04015640 0.03886377 0.00034563
-0.06861594 0.05755092 0.12143532
-0.02080544 0.08639517 0.02403976
-0.03361941 0.09142523 0.15511845
0.04533296 0.01168608 0.18575138
0.02618817 0.08153366 0.18105194
-0.00788429 -0.02267613 0.04741496
-0.04228446 0.03294312 0.00028300
0.01528525 0.08530200 0.13216065
-0.03451322 0.01388040 0.23109454
0.02166186 0.07952523 0.22967748
0.05608496 0.09834594 0.19409098
-0.07152353 0.05006775 0.12515973
0.05124879 0.04468649 0.22472566
-0.06165581 0.06721096 0.09908680
-0.02859200 -0.03003619 0.22681349
0.05002862 0.03242415 0.20589150
0.04076664 0.08458405 0.22146932
-0.06924950 0.01153696 0.11537735
-0.05611261 0.08252808 0.21333668
-0.04788592 -0.02029626 0.22494825
0.03386404 0.06737399 0.11137862
-0.02793674 0.09698594 0.21780544
0.03577037 -0.00490351 0.17845025
-0.02915644 -0.02090862 0.04395068
-0.00040186 -0.00329954 -0.00034536
0.02579550 0.07663949 0.09547584
0.01395268 0.09148038 0.23127992
0.00472276 -0.02809255 0.21760470
0.03481550 0.05822079 0.03946324
-0.07077186 0.00033725 0.22223683
-0.05233042 0.07001873 0.00960394
0.03303779 0.07077202 0.13510119
-0.01017621 0.05411673 0.00029125
-0.06292642 0.05471870 0.01080503
0.04071600 0.07105271 0.22476837
-0.03485855 -0.02306826 0.22954275
-0.02703664 -0.01570358 0.23334126
0.01310126 0.06266276 -0.00099994
0.04336989 0.08000189 0.22355175
-0.00653942 0.00038053 0.00016493
0.00004229 -0.02341876 0.09139054
0.02930756 0.03959537 0.22664419
-0.03148111 -0.02657340 0.17858471
-0.00215360 0.09612562 0.20959235
0.01534665 -0.02028708 0.14582444
0.05856431 0.10156400 0.20921751
0.02586083 0.07141844 0.05068983
0.03683912 0.07317878 0.20963292
0.01498977 -0.01231917 0.00699159
-0.05723689 -0.01027973 0.15651225
-0.00035957 0.09302946 0.16013507
0.05048766 0.09575729 0.10871049
-0.05787391 -0.00757648 0.12735377
-0.02927651 0.08551186 0.03780669
-0.01901846 0.08783849 0.04620410
0.04052270 0.00475166 0.22909646
0.00461635 -0.02656502 0.18413291
-0.07061358 0.05902557 0.16576095
-0.05023660 -0.02203640 0.22486110
-0.07428699 0.04007627 0.13944583
-0.07075396 0.01775735 0.10485710
-0.01261162 -0.02935282 0.18666467
-0.03232024 0.03358962 0.00079046
-0.00761851 0.09875533 0.22390381
-0.02848507 -0.02465118 0.11858108
-0.07234563 0.01051230 0.18304820
0.04270908 0.04023307 0.07268607
-0.02400242 0.09492444 0.22701310
0.03985026 0.01954055 0.03730005
-0.06770811 0.05411285 0.08249162
-0.01551373 0.09626315 0.19031199
-0.03046201 0.08608597 0.05203081
0.01317832 0.04695150 0.21717049
-0.03038714 -0.02627955 0.16457173
-0.05753479 -0.02371624 0.21986919
-0.05470937 0.07151455 0.05473837
-0.04084437 0.09261252 0.21655681
-0.00925400 0.00119867 0.22124291
-0.07358464 0.05475962 0.19505115
0.03703652 0.07954162 0.08412120
-0.03713876 -0.01996778 0.08255701
-0.01008597 0.09029249 0.08944208
-0.03976552 0.08428180 0.08195927
-0.02879418 0.09592683 0.22912704
0.03418297 0.08041989 0.09571558
-0.00962551 0.09447702 0.16019013
0.00619183 0.05505426 0.23509275
0.04299854 0.02160300 0.08398389
-0.02219298 0.04669308 0.22437729
0.05476941 0.09999392 0.13298321
0.01478925 0.00152020 0.22651027
-0.06175794 -0.00766445 0.19786644
0.02206234 0.07611819 0.06931302
0.02038888 0.03726729 0.21951829
-0.06250232 -0.01498548 0.19966452
-0.06662872 0.06596368 0.16001246
0.04552266 0.08653464 0.08939399
-0.02283614 0.05967255 0.21624991
0.06309689 0.10120152 0.17511842
-0.06061036 -0.00102267 0.08427546
0.05500130 0.10708757 0.12516022
-0.06912297 0.00433988 0.22797030
0.04330779 0.04624076 0.10527587
0.05845651 0.08956086 0.18801454
-0.03226195 0.08854114 0.10194441
-0.03231503 0.09141680 0.14883044
-0.06749747 0.06942981 0.21230054
-0.05154347 0.07774643 0.09627387
0.01021432 0.01156951 0.00018059
-0.04089209 -0.02162470 0.14884070
0.04040118 0.00536666 0.14103204
-0.06054666 0.07591135 0.18165339
0.05352532 0.09504381 0.15079200
-0.06026568 0.07412812 0.15559150
-0.06171287 0.00600329 0.23198215
0.02961175 0.00333355 0.00430507
0.00833626 0.08226343 0.03111686
0.05503501 0.09152051 0.09722067
0.01321883 0.09001702 0.19115336
0.03074136 0.07932711 0.22691619
0.02950992 0.07665293 0.15732761
-0.05498375 0.03010189 0.22497033
0.03476688 0.08871688 0.21029681
0.04065512 0.05654785 0.11897825
0.00565932 -0.02279950 0.11232210
0.04687428 0.01945889 0.16616849
-0.01087365 -0.01245959 -0.00083572
-0.05588967 -0.01269692 0.17345296
-0.06086490 0.00258870 0.04638050
0.04465882 0.04223400 0.11388947
-0.04659018 0.08633469 0.16697080
-0.00943653 0.09328881 0.22865269
-0.00081967 0.07379224 0.23490074
-0.06035408 0.00150986 0.04963071
-0.04034091 0.08581746 0.10939482
0.00006663 -0.00529096 0.22532032
-0.06294624 0.04312561 0.23164528
0.04118902 0.09917979 0.22109006
-0.04494735 0.07793140 0.03342621
0.02324257 0.00475266 0.22977232
0.05443456 0.11145100 0.16415664
0.04073727 0.01325330 0.08327268
-0.07623311 0.05641509 0.22998732
0.02728606 0.07137743 0.06973111
-0.07528929 0.01906409 0.19613149
-0.07320410 0.05526803 0.18787400
0.02002307 0.05743270 0.22505388
-0.03084141 0.00104073 -0.00017202
0.04001770 0.06104256 0.14200378
0.05638325 0.08811455 0.17250687
-0.01482369 0.09689382 0.20524078
-0.00612801 0.07601785 -0.00122470
-0.05128535 0.07350212 0.04063872
0.05581342 0.09822498 0.18170416
-0.07289106 0.04597601 0.13148349
-0.06412992 0.00277588 0.10073076
0.00988338 0.08694360 0.11847502
0.03268913 -0.00401057 0.11353431
-0.06942440 0.06850124 0.23202496
0.06429027 0.09563957 0.12725139
0.04609585 0.05602935 0.20582182
-0.06090938 0.00580951 0.01658991
0.03093858 -0.00051851 0.04564873
-0.07123375 -0.00273941 0.21961572
0.04409136 0.08619750 0.22393998
-0.00838486 -0.02246930 0.04218970
0.04747762 0.03547559 0.15001627
0.02279110 0.07232686 0.02386361
-0.02469367 0.08886406 0.07548231
0.04595144 0.02761580 0.12445898
-0.05923589 -0.00071423 0.05784844
-0.07576099 0.02693548 0.16886127
0.05661994 0.11021039 0.15479892
0.04713688 0.02290236 0.15827504
0.05974194 0.10169419 0.12153051
0.04799402 0.09920433 0.14343402
-0.05002217 -0.01655770 0.15789075
-0.04948798 0.08720108 0.22896374
-0.03485106 0.09300764 0.19040979
-0.04022527 -0.01800453 0.07290728
0.03063375 -0.00581433 0.10300041
-0.05208046 0.07964829 0.12706190
-0.01957952 0.09047677 0.23015262
-0.05336482 0.03632920 0.22354533
0.02141606 0.05841585 0.22636174
-0.02142040 -0.02884527 0.18761667
0.03975622 0.03201133 0.23226669
0.04608988 0.09765675 0.14226753
-0.03840022 0.09385949 0.23150937
0.06558435 0.10186310 0.16003112
0.01494531 0.05611874 0.22143293
-0.06756659 0.02990585 0.00961076
-0.04192401 0.08347975 0.08640661
0.05772760 0.11044675 0.18397185
0.03347329 -0.00800696 0.18627897
0.04236588 0.05877700 0.15936698
0.03309420 -0.00455528 0.12665741
-0.06921791 0.04406315 0.05838930
-0.06487302 0.07080881 0.18576435
0.04736666 0.04698670 0.17384649
-0.05369812 0.06942499 0.01905387
0.03040114 0.06610960 0.05375177
-0.02702341 0.09484701 0.18367997
-0.05307714 -0.01097239 0.10647412
0.03628212 0.07183199 0.18850818
0.01099330 -0.02482977 0.20741897
-0.07427967 0.03447440 0.13302779
-0.00091249 0.03728678 0.23269150
0.05440379 0.08977158 0.18772046
0.04281063 0.01133952 0.13524301
0.02210928 -0.00896044 0.23200856
-0.06705714 0.06588628 0.16611707
0.05693331 0.10225006 0.15709792
-0.05776710 0.06423480 0.01675206
-0.05950427 -0.00823419 0.22513274
0.03976325 0.03409097 0.01209014
0.01715887 -0.01899008 0.14022883
-0.00212955 0.08988134 0.10351647
-0.04769199 -0.02402999 0.22664229
-0.06965383 0.01908359 0.07944477
-0.05959849 0.00373420 0.23218859
-0.06720575 0.02781803 0.00722249
0.00371915 0.08340348 0.01686967
0.05104989 0.09639354 0.10962225
-0.04219511 -0.02110567 0.15134436
0.02357963 -0.01314934 0.11355047
0.05101491 0.04780070 0.22849412
-0.07928602 0.03526639 0.22490814
-0.06102215 0.03575836 -0.00035136
-0.07130573 0.01368210 0.13848291
-0.00069543 0.03243308 0.21766570
0.04711968 0.04095325 0.15156676
0.00300193 -0.00960913 0.22943778
-0.02167432 0.09250863 0.13143354
0.04865240 0.08514903 0.08755073
-0.05165522 -0.00452246 0.00498165
0.04266204 0.02330425 0.07352140
-0.01369851 0.06714213 -0.00030829
0.02941531 -0.00773237 0.11298644
-0.02187595 0.05051630 0.00054387
0.02557694 -0.00202264 0.23267644
0.05896523 0.10446569 0.17657456
0.02513135 0.07862502 0.13337735
-0.03298566 0.03039399 0.21423235
-0.01328175 -0.02948666 0.19516655
0.04269078 0.00914264 0.15102636
-0.02349287 0.03682403 0.00093478
-0.00132144 0.05380406 0.00015189
-0.02021255 -0.02274632 0.04778291
-0.00690468 0.08818687 0.05360144
0.01377260 -0.02246823 0.17276888
-0.02676669 -0.02433178 0.10287879
0.02166407 0.07633699 0.23079280
-0.03180447 0.08595045 0.23106366
0.01659559 0.00262571 -0.00252615
0.00556795 0.02098499 0.00069389
0.05476722 0.09706351 0.19084188
0.05435721 0.09965967 0.15320574
-0.02580768 0.06084279 0.00002779
0.00517281 -0.02505094 0.15401513
0.04759689 0.04037301 0.15826568
-0.00484174 0.08898394 0.07786301
-0.02272511 0.02666173 0.00098835
0.03576998 0.08302449 0.22236327
0.02324600 -0.01104314 0.07620885
0.04194675 0.03080013 0.04780337
0.03112310 0.01353754 0.23167252
0.04254961 0.06844792 0.23053113
-0.01872955 0.08064764 0.23084867
-0.06428131 0.06657017 0.13019975
0.05030586 0.03550951 0.20874822
-0.04520702 0.06913263 0.22942115
-0.06191671 -0.00127185 0.10830631
-0.05442112 -0.00062920 0.23258144
-0.05047559 0.07708694 0.07655149
-0.07414298 0.01660997 0.17651517
-0.03667014 0.04917425 0.21611073
0.02309359 0.07992784 0.12900153
0.05500422 0.10783660 0.12878952
-0.00979357 0.09849239 0.22017560
-0.06841621 0.06542627 0.18594642
0.04260962 0.05296543 0.12627872
-0.01380942 0.09527254 0.16996994
-0.04956804 -0.01279443 0.08792454
0.00466130 0.08472254 0.04761110
0.04473492 0.00875783 0.20710684
-0.06104897 -0.00796073 0.18486489
-0.03044813 -0.02604483 0.15897661
0.03820271 0.06355354 0.13596934
0.03762547 0.01516859 0.02213304
0.03850668 0.04613041 0.02005083
-0.03276500 0.07173947 0.22571895
0.01467238 0.08867102 0.17614857
-0.04704707 -0.02174130 0.21725575
0.04121289 0.04476220 0.06176774
0.04397214 0.08966763 0.08715160
-0.01114921 0.00020433 0.23105437
0.04250992 0.03016980 0.05779127
0.00172131 -0.02420409 0.11570751
0.01876204 0.06489085 0.22838026
0.03348895 0.02861906 -0.00004585
0.00571879 0.02357200 0.21469302
-0.00591701 0.08618524 0.23151102
-0.02092232 -0.02952547 0.20993504
0.02866117 0.06683047 0.03584319
-0.06655681 -0.00107966 0.19264518
0.03408525 0.07347519 0.22701776
-0.04073401 0.09313906 0.22007019
-0.04062873 0.05680786 0.22020839
-0.07157108 -0.02301417 0.21010226
0.03428774 0.07025471 0.09948297
-0.02509067 0.04639237 0.21425416
0.01995936 0.07663385 0.05633357
-0.03562810 -0.01978087 0.06679596
-0.01504240 0.01633634 0.00103052
-0.04465629 -0.02364162 0.22963309
0.01334626 -0.01878306 0.09846323
-0.07586701 0.04423250 0.18148089
0.00376838 -0.02595068 0.16449371
-0.00089869 -0.02780311 0.17887105
-0.01308471 0.09223811 0.12090113
-0.01969748 0.01123798 0.00083473
0.03278935 -0.00173460 0.23093919
-0.02786293 0.08952648 0.09824600
-0.06787256 -0.02545373 0.21250810
-0.01184703 -0.00907943 0.23197708
-0.03081184 0.08349204 0.01090393
-0.03377786 0.08290682 0.01876062
-0.03569290 0.01207692 0.00020473
-0.04144927 -0.02022176 0.12628508
-0.01380796 0.01022414 0.00081466
-0.07620869 0.03509608 0.17016802
-0.04435562 -0.01280009 0.02418986
0.03119083 0.00123846 0.03129401
-0.07402161 0.03568896 0.12848144
-0.00351828 0.08518604 0.01205984
-0.01179459 0.09617083 0.18991440
-0.06948852 0.00518727 0.17312138
0.00415942 -0.01959441 0.04044082
-0.07400094 0.04602349 0.15140001
0.03085502 0.08444110 0.08042565
0.01005603 0.09522104 0.23010670
0.04787091 0.02153791 0.17691328
0.04954255 0.04196510 0.20443322
-0.06319200 0.00315306 0.08068248
0.03957687 0.08527312 0.08255310
-0.03101329 -0.02796255 0.21404310
0.03297716 0.00276042 0.04163069
-0.03385077 -0.01774617 0.01594938
-0.00012742 0.09186616 0.14274767
0.03795240 0.05784679 0.08869561
-0.05190401 0.08445646 0.19917600
-0.01078100 0.01298038 0.00089027
0.05104124 0.08407205 0.22091863
0.05658787 0.08932557 0.19130784
0.03980011 0.09080992 0.20792583
-0.04397236 -0.01812430 0.11384637
-0.04617295 -0.01010818 0.00692769
0.04211762 0.09846933 0.20378494
-0.01163880 -0.01345899 -0.00063020
-0.05741817 0.06654432 0.03302421
0.01093426 -0.00414079 -0.00107218
0.04917277 0.09548882 0.19599780
-0.01511385 0.09617480 0.22648967
-0.06078442 -0.00215739 0.10075131
0.04035967 0.06031138 0.14108585
0.00728157 0.08509135 0.07327722
0.01003673 0.09284833 0.21279151
-0.04925430 -0.01235173 0.07653164
-0.06909258 0.00510017 0.16593784
0.03469222 0.00788672 0.02392976
0.04374178 0.04047036 0.09218317
-0.04077309 0.01959178 0.21758141
0.00698010 0.08648724 0.09389682
0.05359675 0.08926096 0.18532544
0.04889802 0.03123271 0.17477768
0.02662207 0.04133405 -0.00222356
0.05342435 0.10804292 0.12344843
-0.06040770 -0.00636956 0.19786946
0.03234603 0.09232720 0.22326517
-0.07405546 0.01775937 0.16844410
0.04188006 0.01175606 0.11436625
-0.01867666 0.04292141 0.00077729
-0.03358672 0.09355372 0.19442464
0.00950071 0.08588318 0.10095084
0.01938446 0.08333989 0.13884845
-0.06918507 0.02134631 0.06305927
0.04764209 0.10504202 0.21299329
-0.03210763 0.03234434 0.21398700
-0.03666725 0.00472895 0.23606556
-0.06361710 0.00016258 0.12045378
-0.05396804 -0.00487661 0.02879742
-0.06475974 0.00964351 0.04882556
0.02255851 0.07686120 0.23044966
-0.05494134 0.04600590 0.22605323
0.03935253 0.01306745 0.06019194
-0.06720854 -0.00506396 0.21117198
-0.07006080 0.03504561 0.05615832
-0.02095491 0.01889656 0.00104054
0.04020093 0.00839772 0.10908701
-0.05971664 0.06641113 0.06187048
0.04257468 0.05438490 0.13434593
-0.03704593 0.06989055 0.22618219
-0.05404344 -0.01150997 0.12813107
0.05561593 0.10361805 0.21019481
-0.03071754 -0.02417867 0.12165136
0.05016968 0.09966845 0.18461780
0.00624018 0.07857679 0.00186158
-0.06866614 0.00439937 0.16527880
-0.03918967 0.00609604 0.23025018
-0.05260637 0.07982556 0.13495158
0.01872011 0.08936753 0.23135889
-0.04226818 0.09160920 0.23101378
-0.03200965 0.02069680 0.22212422
0.00666150 0.04977526 0.21830235
-0.03966722 -0.02385266 0.20014543
0.00143470 0.01036122 0.21650007
0.02736256 0.06572509 0.00668219
-0.02242918 -0.02087083 0.01649583
-0.05593374 -0.00421449 0.04976869
0.03868231 -0.00555986 0.23235338
-0.06287947 -0.02027745 0.20609178
0.00047060 -0.02820605 0.20779968
0.03604738 0.07713732 0.22308573
-0.07129019 0.00579099 0.21320546
0.03716752 0.00711192 0.06671237
-0.06927758 0.06614387 0.20999173
-0.01807230 0.09334126 0.14017571
0.00761246 -0.02257749 0.12192756
-0.02379268 0.04200790 0.22251020
0.04113711 0.04166110 0.04934966
0.04231396 0.00396120 0.20544340
0.00667852 0.09345307 0.20774313
-0.04014966 -0.02389075 0.20698111
0.02759664 0.04755018 -0.00115816
-0.02606790 0.03510867 0.22300698
-0.05752455 0.07130509 0.08759017
0.04277511 0.01757120 0.23050388
-0.02792432 -0.02633753 0.15164929
-0.06537129 0.05007402 0.02037035
-0.01650501 -0.02653415 0.12207557
-0.03802286 0.08453022 0.07272950
-0.02877651 -0.02136808 0.05046675
0.04399330 0.01026866 0.16693985
-0.02372521 0.08793606 0.05461521
0.05428192 0.09357634 0.21839050
0.02045623 -0.01595224 0.12288968
0.03455204 0.04795045 0.00234535
-0.06154775 0.07522644 0.19013027
0.00579793 -0.01883306 0.03758003
-0.03260119 -0.02301346 0.10935235
-0.05988025 0.07110055 0.11626834
-0.06069395 -0.00083346 0.08346533
0.03735353 0.08682933 0.20855483
0.01164782 0.00909076 0.22036429
-0.03258664 -0.02441196 0.13841144
0.03611177 0.06559607 0.12515442
-0.01781153 -0.02922376 0.18857351
-0.02948440 -0.02642656 0.16209969
-0.03441773 -0.01023738 0.23424885
0.03168240 0.09385546 0.22463869
0.05928001 0.10477677 0.16471794
0.04636598 0.09938774 0.19421813
0.04344990 0.00645974 0.20216532
0.03757404 0.05276036 0.04214010
0.04934083 0.07642807 0.22335840
0.00863186 -0.01649374 0.01526217
0.00861854 0.08163999 0.02185695
-0.00488201 0.08886639 0.07335874
0.00473468 -0.02648027 0.18263796
-0.02719809 0.08501392 0.01971045
0.02471832 0.07289872 0.05978847
-0.05638777 0.06707302 0.02598882
0.00702314 0.03879800 0.21450574
0.05319766 0.09444421 0.19725189
0.04181664 0.04885079 0.09279055
0.03651802 0.08280386 0.21281116
-0.02036494 -0.02425594 0.07874386
0.04125154 0.04339224 0.05770144
-0.01577189 -0.02322502 0.05170694
0.03325806 0.08458510 0.08164912
0.01595526 0.02755404 0.00021256
0.01342722 0.08664472 0.13758520
-0.03164294 -0.02546887 0.15463884
0.05480078 0.11171495 0.16586066
0.02690946 0.07925527 0.07625786
-0.04982543 0.07690355 0.06501886
0.00903811 -0.02672596 0.21835766
-0.07216774 0.00364516 0.22123761
0.02915788 0.07612886 0.09584887
-0.03898509 0.08728837 0.12237611
0.04524933 0.08757629 0.09594004
-0.07019419 0.05519625 0.13168425
-0.05573021 0.07099371 0.06081980
0.04604264 0.05530938 0.19954836
-0.01217949 0.05170993 0.00042145
0.00617170 -0.01513330 0.23266935
0.04232377 0.03888871 0.23127587
0.02451432 -0.00770807 0.04415051
0.03781456 0.08248631 0.09997697
-0.03297831 0.03461622 0.21407400
-0.05130219 -0.01229461 0.23028955
0.02006040 0.07444105 0.02021711
0.01442627 -0.02271718 0.18720835
